0.0000 0.0000 0.0000 0.0000 0.0000 0.0000 0.0000 0.0000 0.0000 0.0000 0.0000 0.0000 0.0000 0.0000 0.0000 0.0000 0.0000 0.0000 0.0000 0.0000 0.0000 0.0000 0.0000 0.0000 0.7844 0.7854 -2.5536 -0.7874 -0.7884 0.0000 0.0000 0.0000 1.5708 2.3634 -1.5708 -1.4920 -1.3339 -1.4877 -1.4758 -1.2120 -1.2490 -1.1659 -0.9505 -0.5586 -0.6610 -0.9273 -0.2450 -0.5586 -0.8380 -0.3218 -0.1419 -1.0517 -1.1903 -1.8925 -1.4537 -1.0769 -0.9601 -0.9828 -2.4669 3.1416 3.1416 -2.6012 -2.0344 -1.7682 -1.8623 -2.0779 -1.8158 -2.2794 -2.8198 -1.8925 -1.1659 -1.2490 -1.4289 -1.1903 -0.8622 -0.8622 -0.6947 -1.3045 -1.5708 -1.6476 -1.9296 -1.8491 -2.3562 -2.8198 3.1416 3.1416 -1.7682 -1.4464 -1.4056 -1.2490 -0.7854 3.1416 -2.6779 -2.0344 0.0000 -1.5708 -1.2490 -1.5708 -2.3562 1.2490 1.1659 0.0000 -2.2143 -1.7127 1.5708 2.4669 -1.5708 -1.7359 -2.0344 3.1416 3.1416 -1.5708 3.1416 -2.8198 -2.1588 -2.0344 3.1416 -1.5708 -1.3734 -1.3258 0.0000 2.1588 1.8158 2.2974 2.7367 2.6779 3.1416 -2.0344 -1.5708 1.5708 1.5708 0.4636 2.8966 2.8198 3.1416 -1.2490 -1.8925 -1.5708 -1.3258 -1.1903 -2.0344 -2.9442 2.4228 2.3562 2.4088 -1.6106 -1.5708 0.0000 0.0000 0.0000 0.0000 0.0000 0.0000 0.0000 0.0000 0.0000 0.0000 0.0000 0.0000 0.0000 0.0000 0.0000 0.0000 0.0000 0.0000 0.0000 0.0000 0.0000 0.0000 0.0000 0.0000 0.0000 0.0000
0.0000 0.0000 0.0000 0.0000 0.0000 0.0000 0.0000 0.0000 0.0000 0.0000 0.0000 0.0000 0.0000 0.0000 0.0000 0.0000 0.0000 0.0000 1.5708 0.0000 -0.8168 0.0000 0.7815 0.7864 -0.0080 -2.6779 -2.8966 -2.8198 -0.7914 -0.7914 0.0000 0.0000 0.0000 2.3707 2.3743 -1.6643 -1.6041 -1.5708 -1.4758 -1.2120 -0.7854 -0.6947 -0.3588 -0.2450 -0.7328 -0.6747 -0.2187 -0.7086 -0.8520 -0.2663 -0.4636 -1.1071 -1.1442 -1.7895 -1.0304 -0.7854 -0.7854 -0.9505 -1.3045 -1.1071 2.8198 -2.3562 -1.6815 -1.3597 -1.6476 -1.6615 -1.8370 -2.0344 1.8925 0.2450 -0.4636 -0.8761 -0.9505 -0.6747 -0.5880 -0.6610 -1.0122 -1.3734 -1.4758 -1.5708 -1.7895 -2.0899 -2.4669 3.1416 2.7611 2.9764 -2.6779 -2.0344 -1.5708 -0.9828 -0.7854 -1.5708 -2.3562 3.1416 2.3562 3.1416 -1.8925 -1.5708 0.0000 1.5708 1.4289 -2.0779 -2.1815 -2.6779 -2.3562 2.5536 3.1416 -1.5708 -1.8925 -2.6779 2.4981 1.5708 -2.1588 -2.9442 -2.8198 -1.5708 0.7854 -1.5708 -1.5708 -1.3258 -0.9828 3.1416 2.5536 2.7611 2.7150 2.7150 2.7234 2.9442 3.1416 2.8198 2.1588 3.1416 0.0000 1.2490 0.0000 -1.5708 -1.8925 -2.3562 -1.5708 -0.9273 -1.1071 -1.9513 2.5536 2.4805 2.4150 -1.6115 -1.5708 0.0000 0.0000 0.0000 0.0000 0.0000 0.0000 0.0000 0.0000 0.0000 0.0000 0.0000 0.0000 0.0000 0.0000 0.0000 0.0000 0.0000 0.0000 0.0000 0.0000 0.0000 0.0000 0.0000 0.0000 0.0000 0.0000
0.0000 0.0000 0.0000 0.0000 0.0000 0.0000 0.0000 0.0000 0.0000 0.0000 0.0000 0.0000 0.0000 0.0000 0.0000 0.0000 0.0000 0.0000 1.5708 1.5726 -0.1130 -0.0777 -0.0389 -1.7976 -2.2896 -2.7367 3.1416 3.1416 -2.4981 -0.0081 -0.0040 -0.7854 -0.7905 0.0000 1.5839 1.5799 -1.6857 -1.5708 -1.5153 -1.1071 -0.7854 -0.6435 -0.1974 -0.4636 -1.0637 -0.9828 -0.8961 -1.1659 -1.1071 -0.3805 -1.0517 -1.3734 -1.2490 -1.4464 -0.7854 -0.9828 -1.0304 -1.2120 -0.8685 -0.5404 -0.9828 -1.5708 -1.5708 -1.3102 -1.3597 -1.0041 -1.2925 -0.8961 0.6947 0.8961 -0.1974 -0.9098 -0.9505 -0.7854 -0.7266 -1.1442 -1.4801 -1.4995 -1.3826 -1.5120 -1.3258 -1.7682 -2.1112 -2.9764 3.1416 -3.0585 -2.9764 -2.9617 -2.9764 3.1416 -1.2490 -1.3258 -1.5708 -2.8198 3.1416 -2.9764 -2.8966 3.1416 -1.5708 1.8158 2.8633 -2.5128 -2.1112 -2.8198 -2.6779 2.2143 2.0344 -1.2925 -1.2120 -0.5880 0.7854 2.6779 -1.9513 -2.3562 2.6779 1.5708 0.0000 -1.5708 -1.8158 -1.5708 -1.1071 -1.1071 -2.3562 2.6779 2.6779 2.3562 2.1588 2.5536 3.1416 2.5536 2.1588 2.3562 1.3258 0.7854 -2.3562 -1.5708 -1.8158 3.1416 0.0000 -1.5708 -1.2490 -1.6615 3.1416 2.2655 1.9890 -1.5892 -1.5708 0.0000 0.0000 0.0000 0.0000 0.0000 0.0000 0.0000 0.0000 0.0000 0.0000 0.0000 0.0000 0.0000 0.0000 0.0000 0.0000 0.0000 0.0000 0.0000 0.0000 0.0000 0.0000 0.0000 0.0000 0.0000 0.0000
0.0000 0.0000 0.0000 0.0000 0.0000 0.0000 0.0000 0.0000 0.0000 0.0000 0.0000 0.0000 0.0000 0.0000 0.0000 0.0000 0.0000 0.0000 0.7812 1.5762 -1.4916 -1.4978 -1.4219 -1.7234 -2.1294 -2.6779 3.1416 3.1416 -2.6779 -2.6224 -2.8966 -2.6779 -0.7987 -0.0424 0.7778 -1.7748 -1.6476 -1.5232 -1.4056 -1.2490 -0.7854 -0.6435 -0.2450 -0.9828 -1.1526 -1.0637 -0.8961 -1.1659 -0.8761 -0.4636 -1.0517 -0.6557 -0.6435 -0.3218 -0.2141 -0.3730 -0.3948 -0.3883 -0.3530 -0.6023 -0.9828 -1.5708 -2.1112 -1.7506 -1.1903 -1.1071 -1.1659 -0.4636 0.4049 0.0000 -2.5536 -1.8491 -1.3734 -0.9098 -1.0427 -1.3102 -1.4877 -1.6539 -1.5232 -1.5120 -1.2490 -1.4940 -1.8158 -2.1588 -2.6779 -2.9229 -2.8966 3.1416 2.8633 2.6779 3.0419 -2.2143 -1.9296 -2.4330 3.0419 2.8633 2.5536 2.3562 0.0000 3.1416 -2.8501 -2.5213 -2.5536 3.1416 -2.3562 1.9513 1.7682 -1.3258 -0.7854 -0.1651 -0.4636 -1.9513 -2.6012 -2.3562 2.9442 2.3562 2.8198 -1.3258 -1.1071 -1.1071 -1.5708 -2.0344 -2.3562 2.6779 2.5536 2.1112 2.1588 2.5536 3.1416 2.6779 2.4981 2.3562 2.0344 2.6779 -2.3562 -2.2143 -2.3562 3.1416 3.1416 -2.8966 -1.7895 -1.6615 3.1416 2.1588 1.9890 -1.5846 -1.5708 0.0000 0.0000 0.0000 0.0000 0.0000 0.0000 0.0000 0.0000 0.0000 0.0000 0.0000 0.0000 0.0000 0.0000 0.0000 0.0000 0.0000 0.0000 0.0000 0.0000 0.0000 0.0000 0.0000 0.0000 0.0000 0.0000
0.0000 0.0000 0.0000 0.0000 0.0000 0.0000 0.0000 0.0000 0.0000 0.0000 0.0000 0.0000 0.0000 0.0000 0.0000 0.0000 0.0000 1.5708 0.7803 -1.7127 -1.3802 -1.2987 -1.1233 -1.5232 -2.0344 -2.5830 -3.0419 3.0509 -2.8966 -2.7092 -2.7744 -2.8198 -2.3932 -0.0343 -1.9238 -1.9255 -1.6757 -1.4464 -1.1802 -0.7086 -0.1419 -0.2783 -0.4049 -0.6435 -0.7854 -0.5713 -0.4366 -0.3588 -0.2573 -0.1566 0.1049 0.0867 -0.0370 -0.0278 -0.1526 -0.1882 -0.2450 -0.4543 -0.5499 -0.5646 -0.7598 -0.8380 -1.1659 -1.6952 -1.1659 -1.3521 -1.2220 -0.5191 -0.5880 -1.9513 -2.3562 -2.3562 -1.7682 -1.5708 -1.4801 -1.5120 -1.6332 -1.7127 -1.6757 -1.4289 -1.3258 -1.4464 -1.3734 -1.4289 -1.7682 -0.7854 -0.4636 -0.4636 -0.7854 -2.3562 2.9889 2.6779 -2.1910 -1.6815 3.1416 2.1588 1.7682 1.2490 -0.4636 -2.1588 -2.5536 -2.6779 3.1416 2.3562 -2.3562 1.8158 2.2455 -2.6779 -0.9828 -0.7854 -1.3258 -1.4464 -2.1588 -2.7611 3.1416 2.4669 2.3562 2.3562 -1.1071 -1.3258 -1.5708 -1.8925 -2.0344 -2.8198 2.8966 2.4669 2.4981 2.6779 -2.9764 2.9442 2.5536 2.4469 2.3562 2.8198 -2.7611 -2.2794 -2.5213 2.9997 3.1416 3.1416 -2.5536 -1.9380 -2.6779 2.4330 2.2455 -1.6037 -1.5708 0.0000 0.0000 0.0000 0.0000 0.0000 0.0000 0.0000 0.0000 0.0000 0.0000 0.0000 0.0000 0.0000 0.0000 0.0000 0.0000 0.0000 0.0000 0.0000 0.0000 0.0000 0.0000 0.0000 0.0000 0.0000 0.0000
0.0000 0.0000 0.0000 0.0000 0.0000 0.0000 0.0000 0.0000 0.0000 0.0000 0.0000 0.0000 0.0000 0.0000 0.0000 0.0000 0.0000 1.5708 1.5930 -1.8245 -1.3567 -1.1903 -1.0943 -1.3796 -1.6879 -1.9757 -2.3562 -2.8633 -2.6779 -2.6345 -2.7611 -2.5536 -2.2265 -2.0647 -1.8417 -1.7359 -1.4995 -1.2490 -0.9151 -0.4993 -0.3218 -0.3588 -0.5191 -0.5880 0.1651 0.0000 -0.2663 -0.2268 -0.2111 -0.1326 -0.1974 -0.1974 0.0907 0.3218 0.0624 -0.2075 -0.4229 -0.8086 -0.8110 -0.8330 -1.0808 -1.1659 -1.2490 -1.4801 -1.2925 -1.4601 -1.3521 -1.0304 -1.4056 -1.7127 -1.8158 -1.8158 -1.7359 -1.8491 -1.7506 -1.6879 -1.7033 -1.6476 -1.6296 -1.4877 -1.4877 -1.4995 -1.2490 -1.3521 -1.3258 0.3218 -0.3218 -0.3218 -0.7854 -1.4711 -2.6779 2.2143 -2.3562 -1.3258 -0.7854 1.8158 1.5708 1.3258 -1.3734 -1.9296 -2.3562 0.0000 -2.6779 3.1416 -2.9442 2.7611 2.4669 2.6779 3.1416 -1.5708 -1.5708 -1.4711 -1.3521 -1.1071 0.7854 2.0344 2.4469 2.6779 -2.7611 -2.2143 -1.8158 -1.2490 -1.2490 -1.5708 3.1416 2.8198 2.5213 2.6224 3.0172 2.3562 2.6779 2.4669 2.6224 3.0172 -3.0172 -2.4330 -2.4469 -2.8966 -2.8198 -3.0750 -2.9305 -2.4669 -2.7611 2.4669 2.0779 -1.5947 -1.5708 0.0000 0.0000 0.0000 0.0000 0.0000 0.0000 0.0000 0.0000 0.0000 0.0000 0.0000 0.0000 0.0000 0.0000 0.0000 0.0000 0.0000 0.0000 0.0000 0.0000 0.0000 0.0000 0.0000 0.0000 0.0000 0.0000
0.0000 0.0000 0.0000 0.0000 0.0000 0.0000 0.0000 0.0000 0.0000 0.0000 0.0000 0.0000 0.0000 0.0000 0.0000 0.0000 0.0000 1.5708 2.3673 -2.6779 -1.8296 -1.4899 -1.4010 -1.5452 -1.6184 -1.7359 -1.3734 -2.3562 -2.4469 -2.4330 -2.5830 -2.5830 -2.2565 -1.9974 -1.8737 -1.5708 -1.2220 -0.8622 -0.7378 -0.4636 -0.3218 -0.4182 -0.5586 -0.4182 -0.3218 -0.6747 -0.4636 -0.5404 -0.4049 -0.2450 -0.2915 -0.1799 0.0831 0.2985 0.0588 -3.1318 -3.1194 -3.0865 -0.5071 -0.5248 -0.6317 -0.6610 -0.6435 -0.7419 -0.9505 -0.9828 -0.9098 -0.7854 -0.9828 -1.1659 -0.9273 -1.3258 -1.4056 -1.8491 -1.5708 -1.7455 -1.7682 -1.7234 -1.7455 -1.9656 -2.0344 -1.6421 -1.2490 -1.2490 -0.9273 0.7854 -0.4636 -0.1974 -0.9828 -1.2793 -1.1071 2.0344 -1.8925 -0.9273 -0.4636 0.5191 0.7188 1.1071 -1.9513 -2.0344 -2.8966 -2.7611 -2.5213 -2.8198 -2.9997 2.6224 2.2655 2.7611 2.8198 -2.8198 -2.4981 -1.5708 -0.7086 -0.3588 -0.3218 -1.2490 -2.6779 2.8966 3.0309 3.1416 3.1416 -1.5708 -1.2490 -1.2490 -1.5708 -2.3562 2.7611 2.8633 2.4669 2.3562 2.9764 2.8633 2.9229 2.9997 -3.0172 -2.6345 -2.4981 -2.6345 -2.5749 -2.9889 -3.0585 -2.6779 2.3562 2.0344 1.7682 -1.5804 -1.5708 0.0000 0.0000 0.0000 0.0000 0.0000 0.0000 0.0000 0.0000 0.0000 0.0000 0.0000 0.0000 0.0000 0.0000 0.0000 0.0000 0.0000 0.0000 0.0000 0.0000 0.0000 0.0000 0.0000 0.0000 0.0000 0.0000
0.0000 0.0000 0.0000 0.0000 0.0000 0.0000 0.0000 0.0000 0.0000 0.0000 0.0000 0.0000 0.0000 0.0000 0.0000 0.0000 0.0000 0.0000 2.3746 2.3764 -2.6192 -2.1401 -1.8925 -1.7274 -1.5182 -1.3734 -1.8158 -1.9890 -2.1588 -2.4228 -2.5830 -2.4805 -2.3036 -2.0779 -1.8693 -1.5042 -0.8520 -0.6202 -0.5586 -0.4266 -0.5880 -0.6107 -0.5191 -0.4049 -0.3588 -0.4049 -0.3218 -0.1974 0.0000 0.0588 0.0000 0.0000 0.1355 0.3588 -1.4971 -2.3334 3.1416 2.3306 2.3150 -3.0968 -0.4404 -0.4993 -0.4845 -0.5438 -0.4636 -0.2730 -0.4101 -0.4398 -0.4398 -0.5880 -0.5404 -0.7086 -1.0637 -1.3258 -1.3258 -1.5708 -1.6421 -1.6476 -1.8623 -2.2035 -2.5899 -2.6779 -2.2455 -1.3521 -0.8761 3.1416 1.2490 -0.1419 -1.0304 -1.2220 -0.7854 2.0344 1.1071 0.1651 0.2187 0.6288 0.2450 -1.2490 -1.6615 -2.1112 -2.8198 -2.7367 -2.8966 3.1416 -2.7611 2.2143 2.2655 2.5536 2.6779 -2.4981 -2.9764 2.6779 -0.2450 -0.3588 -0.6435 -0.7854 -0.6747 -1.2490 -2.8198 2.5536 2.4981 2.9442 -2.6779 -1.8925 -1.5708 -1.8158 3.1416 2.4669 2.3562 3.0172 3.1416 3.0309 2.6779 2.8198 -2.7367 -2.5536 -2.5213 -2.3562 -2.3562 -2.7611 2.8198 2.5536 1.8925 2.2143 1.9513 -1.5998 -1.5708 0.0000 0.0000 0.0000 0.0000 0.0000 0.0000 0.0000 0.0000 0.0000 0.0000 0.0000 0.0000 0.0000 0.0000 0.0000 0.0000 0.0000 0.0000 0.0000 0.0000 0.0000 0.0000 0.0000 0.0000 0.0000 0.0000
0.0000 0.0000 0.0000 0.0000 0.0000 0.0000 0.0000 0.0000 0.0000 0.0000 0.0000 0.0000 0.0000 0.0000 0.0000 0.0000 0.0000 0.0000 0.0000 2.3781 1.6085 -2.2455 -1.9513 -1.7539 -1.5708 -1.5708 -2.1112 -2.3562 -2.3562 -2.4469 -2.6422 -2.6779 -2.4805 -1.8925 -1.4711 -1.3734 -1.0304 -1.1071 -0.9828 -0.9828 -1.0304 -0.9828 -1.0122 -0.7854 -0.6435 -0.9828 0.0000 0.2783 0.3218 0.2111 0.0666 0.0588 0.2450 0.6823 -1.5267 -1.5708 0.0000 0.0000 3.1416 2.3193 2.3285 -3.0067 -0.5333 -0.5049 -0.3833 -0.1912 -0.3050 -0.2621 -0.2749 -0.3906 -0.3110 -0.3588 -0.4825 -0.4049 -0.6001 -0.8354 -0.7551 -0.9098 -1.4601 -1.9238 -2.3086 -2.8706 2.9850 3.1416 -1.9757 -0.9828 1.2925 0.7854 -1.4056 -1.2490 -0.8622 -1.1071 1.1071 0.9273 0.5404 0.7854 -1.5708 -1.5708 -1.4940 -1.7234 -2.3562 -2.0344 -2.8198 2.3562 -2.6779 1.5708 2.1588 2.3562 2.3562 -2.1588 -2.8198 2.0344 1.5708 0.3218 -0.7854 -0.8761 -0.9828 -1.1071 -1.2490 -0.7854 -2.3562 -2.8966 2.8966 2.3562 -1.5708 -1.5708 -1.5708 2.6779 2.8198 -2.8966 3.1416 2.4981 2.1112 2.5536 -2.2143 -2.2455 -2.3562 -1.7359 -1.9757 0.0000 2.3562 2.8966 2.8633 2.7367 2.4805 -1.6247 -1.5708 0.0000 0.0000 0.0000 0.0000 0.0000 0.0000 0.0000 0.0000 0.0000 0.0000 0.0000 0.0000 0.0000 0.0000 0.0000 0.0000 0.0000 0.0000 0.0000 0.0000 0.0000 0.0000 0.0000 0.0000 0.0000 0.0000
0.0000 0.0000 0.0000 0.0000 0.0000 0.0000 0.0000 0.0000 0.0000 0.0000 0.0000 0.0000 0.0000 0.0000 0.0000 0.0000 0.0000 0.0000 0.0000 1.5708 2.3628 -2.3562 -2.0344 -1.7475 -1.8491 -2.0701 -2.0344 -2.3562 -2.4469 -2.5360 -2.7468 -2.7744 3.1416 2.9442 -1.6815 -1.5708 -2.1910 -2.4669 -2.1588 -2.1588 -2.4669 -2.2455 -1.8491 -2.2143 -2.2143 -2.6012 2.3562 1.8925 1.7127 1.5708 0.7854 0.2450 0.3805 1.2490 -1.5685 -0.7765 0.0000 0.0000 0.0000 0.0000 3.1416 2.3355 2.3269 -3.0175 -3.0659 -0.1599 -0.3283 -0.2767 -0.2000 -0.2360 -0.2487 -0.2281 -0.2311 -0.2054 -0.2838 -3.0661 -3.0738 -3.0437 -2.9863 -1.3258 -1.8281 -2.4527 3.0940 2.8335 2.6516 1.5708 1.1071 -2.7611 -1.5708 -1.4056 -1.4464 -2.3562 2.2143 2.3562 2.6779 2.4981 -2.3562 -1.1903 -1.3440 -1.4940 -2.0344 -1.8158 -1.5708 1.5708 -0.4636 0.9273 1.8925 1.8925 2.4981 -2.3562 -2.3562 1.8158 1.3258 0.7854 -1.1071 -1.1071 -0.8761 -0.8761 -0.5404 -0.2450 -2.0344 -2.8966 2.8966 2.3562 -1.5708 -1.3258 -1.1071 2.3562 2.3562 -2.8198 0.0000 2.1588 1.9513 2.6779 -2.2143 -2.1112 -2.6779 -2.2655 -1.8491 3.1416 -2.5536 -2.6779 3.1416 2.9997 2.7092 -1.6364 -1.5708 0.0000 0.0000 0.0000 0.0000 0.0000 0.0000 0.0000 0.0000 0.0000 0.0000 0.0000 0.0000 0.0000 0.0000 0.0000 0.0000 0.0000 0.0000 0.0000 0.0000 0.0000 0.0000 0.0000 0.0000 0.0000 0.0000
0.0000 0.0000 0.0000 0.0000 0.0000 0.0000 0.0000 0.0000 0.0000 0.0000 0.0000 0.0000 0.0000 0.0000 0.0000 0.0000 0.0000 0.0000 0.0000 0.0000 2.3771 2.3764 -2.2035 -2.0779 -2.2035 -2.2731 -2.0344 -1.9656 -2.1815 -2.1112 -2.5536 -2.7234 3.0309 2.8501 -2.6345 -1.9138 -2.1815 -2.5830 -2.7150 -2.7611 -2.6345 -2.5536 -2.4805 -2.7611 -2.7150 -2.9997 2.9669 2.9669 2.7828 2.7050 2.7986 2.9305 2.7611 2.4559 2.3007 0.0364 -0.7943 -0.7821 0.0000 0.0000 0.0000 0.0000 3.1416 3.1416 2.2992 2.3080 -3.0658 -3.0648 -3.1054 -3.0701 -3.0477 -3.0786 -3.0835 -3.1042 -2.3039 -2.2922 3.1416 3.1416 2.3811 2.3748 -2.9967 -2.0152 -3.0172 2.8198 2.4186 2.1225 2.8633 3.1416 3.1416 -2.1112 -1.5708 -2.2655 2.8633 2.8198 2.7828 2.4981 2.4669 -0.4636 -1.4289 -1.4537 -2.0344 -2.3562 0.0000 1.8925 0.7854 0.1651 -1.5708 3.1416 2.9764 3.1416 2.8198 1.8925 1.7359 2.0344 -2.5536 -0.9828 -0.6747 -0.6435 -0.4636 -0.7854 -1.5708 -2.3562 2.3562 1.9513 0.0000 -1.2490 -1.3258 -2.3562 -2.8198 3.1416 2.3562 2.3562 2.6012 3.0585 -2.8966 -2.2655 -2.5536 -2.7234 -2.4669 -2.9442 -2.5213 -2.4088 -2.8633 2.9442 2.5899 -1.6336 -1.5708 0.0000 0.0000 0.0000 0.0000 0.0000 0.0000 0.0000 0.0000 0.0000 0.0000 0.0000 0.0000 0.0000 0.0000 0.0000 0.0000 0.0000 0.0000 0.0000 0.0000 0.0000 0.0000 0.0000 0.0000 0.0000 0.0000
0.0000 0.0000 0.0000 0.0000 0.0000 0.0000 0.0000 0.0000 0.0000 0.0000 0.0000 0.0000 0.0000 0.0000 0.0000 0.0000 0.0000 0.0000 0.0000 0.0000 0.0000 2.3601 2.3712 -1.7819 -2.0608 -2.2143 -1.8623 -1.5708 -1.7506 -1.6615 -1.9296 -2.1112 -2.8966 2.9442 -2.5536 -1.9196 -1.8623 -2.0344 -2.2143 -2.6224 -2.6779 -2.3562 -2.1294 -2.3562 -2.2896 -2.3562 -3.0703 2.6477 2.4088 2.6012 2.7928 2.7150 2.6345 2.6779 2.2849 2.2597 2.0899 -1.5708 -1.5708 0.0000 0.0000 0.0000 0.0000 0.0000 0.0000 3.1416 3.1416 3.1416 3.1416 3.1416 3.1416 3.1416 3.1416 3.1416 3.1416 0.0000 0.0000 0.0000 0.0000 3.1416 2.4000 1.5851 -2.5749 2.6012 1.9417 1.8314 2.8966 2.6224 2.0344 -2.2455 -1.9513 -1.9890 3.1416 2.7367 2.8501 2.6779 2.5360 2.9442 -2.2731 -1.6879 -1.9757 -2.9997 1.5708 2.3562 1.4056 0.3805 -1.1071 -1.5708 -2.4981 3.1416 2.2143 2.1588 2.2455 -2.8966 -2.9997 2.3562 3.1416 -1.2490 -0.7854 -1.0637 -1.4181 -1.1903 0.9828 1.5708 0.7854 -1.2490 -1.5708 -1.8925 -2.8198 1.5708 2.0344 -0.7854 -2.0344 -2.5830 2.8198 2.6779 -1.8925 -1.9513 -2.3562 -2.5536 -2.0899 -1.9974 -2.4469 2.6779 2.1588 -1.5978 -1.5708 0.0000 0.0000 0.0000 0.0000 0.0000 0.0000 0.0000 0.0000 0.0000 0.0000 0.0000 0.0000 0.0000 0.0000 0.0000 0.0000 0.0000 0.0000 0.0000 0.0000 0.0000 0.0000 0.0000 0.0000 0.0000 0.0000
0.0000 0.0000 0.0000 0.0000 0.0000 0.0000 0.0000 0.0000 0.0000 0.0000 0.0000 0.0000 0.0000 0.0000 0.0000 0.0000 0.0000 0.0000 0.0000 0.0000 0.0000 0.0000 2.3731 1.5646 -1.8925 -2.0344 -1.8623 -1.4801 -1.5708 -1.6615 -1.9296 -1.7682 -2.6779 2.8966 -2.2143 -1.7506 -1.8623 -1.9296 -1.9296 -2.4669 -2.7367 -2.5213 -2.1294 -2.1588 -2.0344 -2.1588 -2.9997 2.4805 2.2974 2.2655 2.6224 2.6779 2.6779 2.7150 2.2455 2.1451 -1.5958 -2.3727 0.0000 0.0000 0.0000 0.0000 0.0000 0.0000 0.0000 0.0000 0.0000 0.0000 0.0000 0.0000 0.0000 0.0000 0.0000 0.0000 0.0000 0.0000 0.0000 0.0000 0.0000 0.0000 1.5708 1.5659 -1.8925 1.6705 1.6184 1.7561 -1.5708 2.4981 2.4981 -1.4464 -1.7682 -1.3258 -0.7854 -2.8198 -2.9442 2.8753 2.7611 3.0940 -2.8357 -2.2974 -2.2318 3.1416 2.4469 2.3562 1.7895 1.5708 -1.8925 -2.0344 -2.2143 1.5708 2.0344 2.2455 1.8925 -2.6779 0.0000 2.0344 -2.6779 3.1416 0.0000 -1.2490 -1.2723 -0.6747 0.4636 1.1071 0.7854 -1.3258 -1.5708 -2.3562 3.1416 2.8198 2.7611 -2.9442 -1.7359 -1.7682 2.6012 2.9764 -2.2143 -2.1112 -1.9513 -2.3562 -1.9757 -1.8370 -2.2455 2.4981 2.0779 -1.5978 -1.5708 0.0000 0.0000 0.0000 0.0000 0.0000 0.0000 0.0000 0.0000 0.0000 0.0000 0.0000 0.0000 0.0000 0.0000 0.0000 0.0000 0.0000 0.0000 0.0000 0.0000 0.0000 0.0000 0.0000 0.0000 0.0000 0.0000
0.0000 0.0000 0.0000 0.0000 0.0000 0.0000 0.0000 0.0000 0.0000 0.0000 0.0000 0.0000 0.0000 0.0000 0.0000 0.0000 0.0000 0.0000 0.0000 0.0000 0.0000 0.0000 1.5708 1.5582 -1.8788 -2.5536 -2.5830 -1.6952 -1.4181 -1.6421 -2.2896 -2.5536 -2.6224 3.1416 -2.8966 -1.9974 -1.9196 -2.0344 -2.1815 -2.4150 -2.7150 -2.9148 -2.6345 -2.2455 -2.0344 -1.9656 -2.4669 2.6012 2.2731 2.5309 -3.0648 3.0367 2.9442 2.9997 2.5213 2.4088 -2.3756 -1.5708 0.0000 0.0000 0.0000 0.0000 0.0000 0.0000 0.0000 0.0000 0.0000 0.0000 0.0000 0.0000 0.0000 0.0000 0.0000 0.0000 0.0000 0.0000 0.0000 0.0000 0.0000 0.0000 1.5708 1.5418 -1.2490 1.4464 1.5708 1.6952 0.0000 0.0000 1.8491 -0.7854 -1.2490 -1.1071 -0.8961 -1.6952 -2.1112 2.6779 -2.9764 -3.0172 3.1416 -2.7150 -2.4088 3.1416 2.3562 2.2655 2.0344 2.9229 -2.1910 -2.3562 3.1416 2.0344 3.1416 1.7682 1.7127 2.3562 0.0000 3.1416 -2.0344 3.1416 1.5708 -1.7359 -1.1442 -1.0304 0.0000 1.1071 3.1416 -2.0344 -1.8925 -2.2143 -2.7367 3.0309 2.8501 2.7828 -2.5536 -1.8925 -2.8198 2.8501 -2.7367 -2.5536 -2.6779 -2.4981 -2.2143 -1.9656 -2.4330 2.8966 2.4669 -1.6319 -1.5708 0.0000 0.0000 0.0000 0.0000 0.0000 0.0000 0.0000 0.0000 0.0000 0.0000 0.0000 0.0000 0.0000 0.0000 0.0000 0.0000 0.0000 0.0000 0.0000 0.0000 0.0000 0.0000 0.0000 0.0000 0.0000 0.0000
0.0000 0.0000 0.0000 0.0000 0.0000 0.0000 0.0000 0.0000 0.0000 0.0000 0.0000 0.0000 0.0000 0.0000 0.0000 0.0000 0.0000 0.0000 0.0000 0.0000 0.0000 0.0000 1.5708 2.3778 -1.6374 -2.0779 -2.8198 -2.8966 -1.6615 -1.6208 -1.9380 -2.4469 -2.8501 3.1416 -3.0309 -2.0899 -1.5708 -1.5708 -1.8693 -2.2143 -2.3562 -2.8501 3.0648 -2.9617 -2.3562 -2.2318 -2.0344 2.8966 2.4088 2.8810 -2.8555 -3.0367 3.0172 2.9694 2.3865 -1.6124 -2.3737 0.0000 0.0000 0.0000 0.0000 0.0000 0.0000 0.0000 0.0000 0.0000 0.0000 0.0000 0.0000 0.0000 0.0000 0.0000 0.0000 0.0000 0.0000 0.0000 0.0000 0.0000 0.0000 0.0000 1.5708 1.5517 -1.4289 1.7127 1.5153 1.5084 1.2490 0.2450 1.1071 -1.2490 -1.3734 -1.5708 -1.3734 -1.5708 -1.2490 0.0000 -1.5708 -2.1910 -2.9442 -2.4469 -2.3562 2.1588 1.8491 1.8925 1.9513 2.8633 -2.6779 -1.8925 -2.3562 2.3562 2.0344 1.5708 1.7359 2.0344 -2.9442 -2.9997 -2.9442 2.3562 2.8198 -2.5536 -1.4601 -1.8491 3.1416 3.1416 -2.8198 -2.5213 -2.2455 -2.2143 -2.4981 -2.9764 2.7367 2.3562 -2.9764 -2.0344 -2.0344 3.1416 3.1416 -2.3562 -2.1588 -2.3562 -2.0344 -1.9656 -2.2143 3.1416 2.5536 -1.6279 -1.5708 0.0000 0.0000 0.0000 0.0000 0.0000 0.0000 0.0000 0.0000 0.0000 0.0000 0.0000 0.0000 0.0000 0.0000 0.0000 0.0000 0.0000 0.0000 0.0000 0.0000 0.0000 0.0000 0.0000 0.0000 0.0000 0.0000
0.0000 0.0000 0.0000 0.0000 0.0000 0.0000 0.0000 0.0000 0.0000 0.0000 0.0000 0.0000 0.0000 0.0000 0.0000 0.0000 0.0000 0.0000 0.0000 0.0000 0.0000 0.0000 0.0000 2.3808 1.5687 -1.4711 -1.5708 -2.6779 -2.4038 -1.9890 -1.9380 -2.0779 -2.2794 2.9997 2.7367 -2.7611 -1.8491 -1.7359 -1.6952 -1.9196 -1.9890 -2.2318 -2.8198 -3.1016 -2.8864 -2.7828 -3.0585 -3.0309 3.0090 3.1416 -2.9275 -2.8706 3.1416 2.7468 2.3318 -1.6282 -0.7903 0.0000 0.0000 0.0000 0.0000 0.0000 0.0000 0.0000 0.0000 0.0000 0.0000 0.0000 0.0000 0.0000 0.0000 0.0000 0.0000 0.0000 0.0000 0.0000 0.0000 0.0000 0.0000 0.0000 1.5708 1.5517 -1.4289 1.5708 1.5708 1.6332 2.1588 2.6779 2.6779 -2.7828 -1.9513 -1.8491 -1.9513 -1.8158 -0.9828 0.0000 -1.6952 -1.7127 -2.8966 -2.2455 -1.5708 0.9828 1.5708 1.5708 1.7682 2.6779 -2.3562 -1.8925 -2.3562 2.6779 2.7611 2.4469 2.5536 -2.8501 -2.6422 3.1416 2.7234 2.6779 -2.8501 -2.8966 -2.2794 -1.9890 -2.6779 -2.9997 -2.8198 -2.5536 -2.4150 -2.0344 -1.8925 -2.6779 2.6012 2.6224 3.1416 -2.2455 -2.0344 0.0000 -2.6779 -2.6779 -1.5708 -2.1112 -1.8925 -1.8491 -1.9890 -2.8966 3.1073 -2.3818 -1.5708 0.0000 0.0000 0.0000 0.0000 0.0000 0.0000 0.0000 0.0000 0.0000 0.0000 0.0000 0.0000 0.0000 0.0000 0.0000 0.0000 0.0000 0.0000 0.0000 0.0000 0.0000 0.0000 0.0000 0.0000 0.0000 0.0000
0.0000 0.0000 0.0000 0.0000 0.0000 0.0000 0.0000 0.0000 0.0000 0.0000 0.0000 0.0000 0.0000 0.0000 0.0000 0.0000 0.0000 0.0000 0.0000 0.0000 0.0000 0.0000 0.0000 1.5708 1.5814 -2.0344 -2.2318 -2.2655 -2.3562 -2.2794 -2.3562 -2.4330 -2.1112 -2.9764 3.0172 -2.9889 -2.6422 -2.3086 -1.7682 -1.8623 -2.0344 -2.0577 -2.2938 -2.8335 3.1416 2.9764 3.0585 -2.9764 -2.9442 -2.9534 -3.0466 -2.8810 -2.9764 2.7187 2.5051 2.4859 -0.7879 -1.5708 0.0000 0.0000 0.0000 0.0000 0.0000 0.0000 0.0000 0.0000 0.0000 0.0000 0.0000 0.0000 0.0000 0.0000 0.0000 0.0000 0.0000 0.0000 0.0000 0.0000 0.0000 0.0000 1.5708 1.5566 -1.5708 1.5708 1.6879 1.9138 2.8966 -2.6345 -2.9997 3.0703 -2.7611 -2.4469 -2.3562 -2.4669 -2.6779 -2.3562 -1.8925 -1.9513 -2.3562 -2.8966 1.5708 0.9828 1.7682 2.2455 2.9997 2.8198 2.7611 -2.4981 -2.2143 -2.8633 3.1416 3.0509 2.9997 3.1416 -3.0419 3.0309 2.6345 3.1416 -2.8753 3.1416 -2.6779 -1.9513 -2.1588 -2.2455 -2.5536 -2.4469 -2.7367 3.1416 -1.9513 -2.1112 3.1416 2.4981 2.8633 -2.9764 3.1416 -2.3562 -2.0344 3.1416 -2.2143 -1.8491 -1.7895 -1.6476 -1.4464 -1.5591 -2.3591 3.1416 0.0000 0.0000 0.0000 0.0000 0.0000 0.0000 0.0000 0.0000 0.0000 0.0000 0.0000 0.0000 0.0000 0.0000 0.0000 0.0000 0.0000 0.0000 0.0000 0.0000 0.0000 0.0000 0.0000 0.0000 0.0000 0.0000 0.0000
0.0000 0.0000 0.0000 0.0000 0.0000 0.0000 0.0000 0.0000 0.0000 0.0000 0.0000 0.0000 0.0000 0.0000 0.0000 0.0000 0.0000 0.0000 0.0000 0.0000 0.0000 0.0000 0.0000 1.5708 1.5837 -2.0344 -2.2974 -2.1588 -1.9656 -1.8925 -2.2143 -2.5536 -1.8925 -2.3562 -2.4669 -2.6345 -2.6779 -2.6224 -1.6815 -1.9380 -2.0074 -2.0956 -2.0553 -2.4981 2.8431 2.6779 -3.0419 -2.7928 -2.6477 -2.7092 3.0585 -2.9764 -2.7744 2.8198 2.5213 2.4330 -2.3839 -1.5708 0.0000 0.0000 0.0000 0.0000 0.0000 0.0000 0.0000 0.0000 0.0000 0.0000 0.0000 0.0000 0.0000 0.0000 0.0000 0.0000 0.0000 0.0000 0.0000 0.0000 0.0000 0.0000 1.5708 1.5899 -1.8019 1.5708 1.4940 2.1112 -3.0309 -2.6779 -3.0172 3.0309 -2.8966 -2.7611 -2.4669 -2.3562 -3.0419 -3.0172 -1.9890 -1.8158 -1.5708 -2.8198 2.8966 2.6779 2.8966 3.1416 2.6779 2.0344 2.8966 -2.8198 -2.0344 -2.1112 -2.7611 2.9442 2.7611 2.9442 3.1416 2.8966 2.4981 3.1416 3.1416 -2.8198 -2.7611 -1.5708 -1.8158 -1.7682 -1.7682 -1.8491 -2.3562 2.6779 -1.9513 -2.0344 2.0344 1.5708 -2.5536 -2.8966 2.3562 2.0344 -1.5708 -1.8925 -2.2143 -1.8158 -1.5708 -1.5708 -1.2490 -1.5592 -0.7825 0.0000 0.0000 0.0000 0.0000 0.0000 0.0000 0.0000 0.0000 0.0000 0.0000 0.0000 0.0000 0.0000 0.0000 0.0000 0.0000 0.0000 0.0000 0.0000 0.0000 0.0000 0.0000 0.0000 0.0000 0.0000 0.0000 0.0000 0.0000
0.0000 0.0000 0.0000 0.0000 0.0000 0.0000 0.0000 0.0000 0.0000 0.0000 0.0000 0.0000 0.0000 0.0000 0.0000 0.0000 0.0000 0.0000 0.0000 0.0000 0.0000 0.0000 0.0000 1.5708 1.5772 -2.0989 -2.5360 -2.4981 -1.8158 -1.7033 -2.4150 -2.9617 -2.4981 -2.7611 -2.7928 -2.7150 -2.8198 -2.8198 -2.2731 -2.0344 -1.9296 -1.9513 -1.8925 -2.1815 2.9229 2.7468 3.1416 -2.7744 -2.6779 -2.4981 -2.9442 -2.6779 -2.5536 3.0419 2.5673 -2.3814 -2.3808 0.0000 0.0000 0.0000 0.0000 0.0000 0.0000 0.0000 0.0000 0.0000 0.0000 0.0000 0.0000 0.0000 0.0000 0.0000 0.0000 0.0000 0.0000 0.0000 0.0000 0.0000 0.0000 0.0000 1.5708 1.5853 -1.6421 1.3734 1.2220 2.2143 -2.6779 -2.2143 -2.8198 2.9442 3.1416 -2.8633 -2.5213 -2.1588 -2.7928 2.8753 -2.6012 -1.2490 -1.9513 -2.3562 3.1416 2.8198 2.5830 2.6779 2.4981 2.4669 2.8198 -2.8198 -2.3562 -2.1112 -2.6779 2.8966 2.3562 2.6779 3.1416 2.6779 2.3562 3.1416 3.1416 -2.9764 -2.5536 -2.6779 -1.8158 -1.7682 -1.7682 -1.7127 -1.8925 2.8966 -2.2455 -1.5708 1.1071 2.3562 -2.6779 -2.9764 2.6012 2.8198 -2.3562 -2.1588 -2.0344 -1.8158 -1.5708 -1.3909 -1.1071 0.0000 -0.7796 -1.5708 0.0000 0.0000 0.0000 0.0000 0.0000 0.0000 0.0000 0.0000 0.0000 0.0000 0.0000 0.0000 0.0000 0.0000 0.0000 0.0000 0.0000 0.0000 0.0000 0.0000 0.0000 0.0000 0.0000 0.0000 0.0000 0.0000 0.0000
0.0000 0.0000 0.0000 0.0000 0.0000 0.0000 0.0000 0.0000 0.0000 0.0000 0.0000 0.0000 0.0000 0.0000 0.0000 0.0000 0.0000 0.0000 0.0000 0.0000 0.0000 0.0000 0.0000 1.5708 1.5904 -2.2287 -2.5309 3.1093 -3.0648 -2.4228 -2.4117 -3.0940 -2.8387 -2.6779 -2.8198 -2.8198 -2.8555 -2.9562 -2.8198 -2.1294 -1.7682 -1.6757 -1.6815 -1.6539 -2.9442 2.8753 -2.8633 -2.7828 2.8633 -2.9764 -2.5213 -2.5536 -2.5213 -2.6779 -1.6040 -2.3779 0.0000 0.0000 0.0000 0.0000 0.0000 0.0000 0.0000 0.0000 0.0000 0.0000 0.0000 0.0000 0.0000 0.0000 0.0000 0.0000 0.0000 0.0000 0.0000 0.0000 0.0000 0.0000 0.0000 0.0000 1.5708 1.5804 -1.4056 1.4711 1.8158 2.3562 -2.6779 -2.2143 -0.7854 1.5708 -2.0344 -2.5536 -2.8198 -2.2318 -2.1588 2.5830 2.5536 -1.9513 -1.8158 -1.9757 -2.6779 2.8633 2.6779 2.7234 2.6224 2.7150 2.8753 -2.9764 -2.8431 -2.7468 -2.8966 2.8966 2.7234 2.9229 3.1416 -2.9764 3.1416 -2.9442 -3.0309 3.0585 2.8633 2.9764 -2.6779 -2.2455 -2.3562 -2.0899 -1.8925 -2.9229 -3.0419 2.8966 0.7854 -2.4669 -2.4228 -2.9229 2.7828 2.6779 2.8633 -2.6779 -2.3562 -2.3562 -1.7682 -1.2120 -0.7086 -0.4636 -1.5650 -1.5708 0.0000 0.0000 0.0000 0.0000 0.0000 0.0000 0.0000 0.0000 0.0000 0.0000 0.0000 0.0000 0.0000 0.0000 0.0000 0.0000 0.0000 0.0000 0.0000 0.0000 0.0000 0.0000 0.0000 0.0000 0.0000 0.0000 0.0000
0.0000 0.0000 0.0000 0.0000 0.0000 0.0000 0.0000 0.0000 0.0000 0.0000 0.0000 0.0000 0.0000 0.0000 0.0000 0.0000 0.0000 0.0000 0.0000 0.0000 0.0000 0.0000 0.0000 0.7822 1.5976 -1.9809 -1.8662 -2.4733 -2.9275 -2.7928 -2.6779 3.0419 3.0172 -2.4981 -2.0344 -2.3562 -2.7611 -2.6779 -2.6779 -1.8158 -1.5708 -1.5182 -1.5708 -1.4181 -1.6952 2.6012 1.8925 -1.5708 -2.3562 -2.6012 -2.4669 -2.2455 -2.4981 -2.0344 -1.5847 -1.5708 0.0000 0.0000 0.0000 0.0000 0.0000 0.0000 0.0000 0.0000 0.0000 0.0000 0.0000 0.0000 0.0000 0.0000 0.0000 0.0000 0.0000 0.0000 0.0000 0.0000 0.0000 0.0000 0.0000 0.0000 1.5708 1.5804 -1.4801 1.7359 1.9296 1.8158 -1.8925 2.6779 1.5708 -1.5708 -2.0779 -1.7895 -2.3562 -2.4669 -1.7682 2.6779 2.7367 -2.7611 -1.5708 -1.6815 -2.0344 2.8198 2.6012 2.4669 3.0172 3.1416 3.1416 -2.9562 -2.9105 -2.9105 -3.0172 2.8966 2.8387 2.9562 2.9305 3.1416 -3.0419 -3.0419 -2.8966 3.0419 2.7611 3.1416 -2.9617 -2.6224 -2.5213 -2.6224 -1.9296 -2.4228 3.1416 2.4228 2.9764 -2.4150 -2.4330 -2.9442 2.7611 2.6779 2.8966 2.9997 3.1416 -2.3562 -1.8925 -0.9828 -0.8961 -1.2490 -1.5708 -1.5708 0.0000 0.0000 0.0000 0.0000 0.0000 0.0000 0.0000 0.0000 0.0000 0.0000 0.0000 0.0000 0.0000 0.0000 0.0000 0.0000 0.0000 0.0000 0.0000 0.0000 0.0000 0.0000 0.0000 0.0000 0.0000 0.0000 0.0000
0.0000 0.0000 0.0000 0.0000 0.0000 0.0000 0.0000 0.0000 0.0000 0.0000 0.0000 0.0000 0.0000 0.0000 0.0000 0.0000 0.0000 0.0000 0.0000 0.0000 0.0000 0.0000 1.5708 0.7799 -2.3562 -2.0577 -1.7005 -1.3102 -1.0304 -1.0122 -0.6947 0.1419 0.4636 -1.8925 -1.9296 -1.9757 -2.6779 -2.5536 -2.5536 -1.8158 -1.4181 -1.5182 -1.5120 -1.5708 -1.5708 2.1588 1.8925 -1.1903 -1.2490 -2.4981 -2.0344 -2.2455 -2.3562 -2.3562 -1.5792 -0.7925 0.0000 0.0000 0.0000 0.0000 0.0000 0.0000 0.0000 0.0000 0.0000 0.0000 0.0000 0.0000 0.0000 0.0000 0.0000 0.0000 0.0000 0.0000 0.0000 0.0000 0.0000 0.0000 0.0000 0.0000 1.5708 1.6139 -1.7506 1.8925 1.8158 2.4669 -2.7611 -2.1588 -3.0309 -2.5536 -2.5536 -2.2143 -1.8925 -1.8491 -2.1588 -2.3562 2.9764 2.6779 -2.3562 -1.6815 -1.3734 -0.7854 1.5708 2.9764 -2.8198 -2.9229 -3.0509 -2.7928 -2.7150 -2.7928 -2.9617 2.8753 2.8633 2.8633 2.7611 2.9148 3.1416 3.1416 -3.0309 -2.9997 2.9229 3.1416 3.1416 -3.0172 -2.4469 -2.7367 -2.0899 -2.2143 -2.9764 2.4669 3.1416 -2.5830 -2.6012 3.1416 2.7611 2.7611 2.9442 2.9764 2.7611 2.9764 -2.8966 -1.5708 -1.5708 -1.7359 -1.5765 -1.5708 0.0000 0.0000 0.0000 0.0000 0.0000 0.0000 0.0000 0.0000 0.0000 0.0000 0.0000 0.0000 0.0000 0.0000 0.0000 0.0000 0.0000 0.0000 0.0000 0.0000 0.0000 0.0000 0.0000 0.0000 0.0000 0.0000 0.0000
0.0000 0.0000 0.0000 0.0000 0.0000 0.0000 0.0000 0.0000 0.0000 0.0000 0.0000 0.0000 0.0000 0.0000 0.0000 0.0000 0.0000 0.0000 0.0000 0.0000 0.0000 0.0000 0.7673 1.6000 -2.1996 -2.4088 -1.9513 -0.9828 -0.5191 -0.3948 -0.1974 -0.1974 -0.7854 -1.5708 -1.7682 -1.6952 -2.3562 -2.9764 3.1416 2.6779 -1.5708 -1.4219 -1.4601 -1.4995 -1.5708 2.5536 2.1910 -0.9828 -1.4601 -2.4981 -2.4669 -2.0344 -2.4981 -2.6224 -2.3562 -0.7984 -0.8058 0.0000 0.0000 0.0000 0.0000 0.0000 0.0000 0.0000 0.0000 0.0000 0.0000 0.0000 0.0000 0.0000 0.0000 0.0000 0.0000 0.0000 0.0000 0.0000 0.0000 0.0000 0.0000 0.0000 1.5708 1.6239 -1.8158 1.8925 2.6779 3.0703 3.1416 -2.8198 -2.8198 -2.4669 -2.5536 -2.9229 -2.9229 -1.8158 -1.3258 -1.5708 3.1416 3.1416 -2.6012 -1.3258 -1.1071 0.0000 -1.1071 -2.3562 -2.7611 -2.6779 -2.6779 -2.4981 -1.8158 -2.0344 -2.0344 2.6779 2.6779 2.7611 2.6779 2.7928 2.9617 3.0419 3.0309 2.9997 -2.9764 -3.0172 2.8198 3.1416 -2.6224 -2.7611 -2.1910 -1.8925 2.8198 2.5536 -2.8198 -2.6779 -2.5536 -2.6779 2.8198 2.3562 2.8198 2.8198 3.1416 -2.9764 2.6012 2.8198 -1.8925 -1.8491 -1.5822 -0.7971 0.0000 0.0000 0.0000 0.0000 0.0000 0.0000 0.0000 0.0000 0.0000 0.0000 0.0000 0.0000 0.0000 0.0000 0.0000 0.0000 0.0000 0.0000 0.0000 0.0000 0.0000 0.0000 0.0000 0.0000 0.0000 0.0000 0.0000
0.0000 0.0000 0.0000 0.0000 0.0000 0.0000 0.0000 0.0000 0.0000 0.0000 0.0000 0.0000 0.0000 0.0000 0.0000 0.0000 0.0000 0.0000 0.0000 0.0000 0.0000 0.7864 0.7669 -1.9693 -2.2794 -2.1112 -1.2925 -0.5880 0.1651 0.0000 -0.1974 -0.6610 -1.1071 -1.4056 -1.3521 -1.2925 -1.2925 -1.5708 2.0344 2.7611 -2.3562 -1.5120 -1.4659 -1.3734 -1.4056 -2.0344 2.4669 2.9764 -1.7976 -1.9890 2.8198 -1.5708 -1.7127 -2.1112 -2.1588 -2.2794 -0.0359 -0.8020 -1.5708 0.0000 0.0000 0.0000 0.0000 0.0000 0.0000 0.0000 0.0000 0.0000 0.0000 0.0000 0.0000 0.0000 0.0000 0.0000 0.0000 0.0000 0.0000 0.0000 0.0000 0.0000 1.5708 1.5804 -1.1071 -1.5708 -2.6779 2.9229 2.7367 2.6779 1.8925 -1.7127 -1.9513 -2.4669 2.8198 1.8925 -1.1071 -1.3258 -1.5708 -2.6779 2.3562 -0.9828 -1.5708 0.0000 -1.5708 -1.7359 -2.0344 -2.3562 -1.5708 -1.5708 -0.9828 -1.3258 -0.7854 0.0000 0.7854 0.0000 3.1416 3.1416 2.9442 2.7611 2.6779 2.6779 2.8198 3.1416 3.1416 -2.6779 -2.6779 -2.6779 -2.3562 -1.7359 -1.5708 2.8966 -2.8198 -2.3562 -2.6779 3.1416 1.5708 1.5708 2.8198 -2.8198 -2.9442 2.3562 2.0344 3.1416 -2.2455 -1.7359 -1.5708 -0.7912 -1.5708 0.0000 0.0000 0.0000 0.0000 0.0000 0.0000 0.0000 0.0000 0.0000 0.0000 0.0000 0.0000 0.0000 0.0000 0.0000 0.0000 0.0000 0.0000 0.0000 0.0000 0.0000 0.0000 0.0000 0.0000 0.0000 0.0000
0.0000 0.0000 0.0000 0.0000 0.0000 0.0000 0.0000 0.0000 0.0000 0.0000 0.0000 0.0000 0.0000 0.0000 0.0000 0.0000 0.0000 0.0000 0.0000 0.0000 0.7802 0.7865 -2.1294 -1.9173 -2.2318 1.7682 -0.7854 -1.7682 -2.6779 -2.3562 -2.1588 -2.0344 -1.5708 -1.4940 -1.7682 -2.0344 -2.0344 -1.1071 -1.3734 -2.5536 -2.6345 -2.0344 -1.6952 -1.4289 -1.4289 -1.5708 2.9442 2.8198 -2.4228 -1.4056 0.0000 -2.0344 -2.0344 -1.7895 -2.0344 -2.0989 -2.0032 -1.5977 -0.8010 0.0000 0.0000 0.0000 0.0000 0.0000 0.0000 0.0000 0.0000 0.0000 0.0000 0.0000 0.0000 0.0000 0.0000 0.0000 0.0000 0.0000 0.0000 0.0000 0.0000 0.0000 0.7854 1.5804 -1.5708 -1.5708 -1.1071 0.7854 2.4981 1.8925 1.5708 -1.5708 -1.4711 -1.5708 1.5708 2.4981 -1.1071 -1.3258 -1.2490 -1.5708 0.7854 -1.5708 -1.2490 0.0000 -1.5708 -1.4056 -1.5708 -2.3562 -1.5708 -1.5708 -1.5708 -1.3258 -0.7854 0.0000 0.3218 0.0000 0.0000 3.1416 2.6779 2.3562 2.7611 2.7611 3.0309 3.1416 3.1416 -2.7611 -2.6779 -2.4981 -2.1588 -2.0344 -2.3562 -2.8198 3.1416 -2.9442 -2.9442 2.6779 2.0344 0.0000 -2.5536 -2.9442 2.6779 1.5708 -2.1588 -2.9229 3.1416 -1.8925 -1.3258 -1.5592 -1.5708 0.0000 0.0000 0.0000 0.0000 0.0000 0.0000 0.0000 0.0000 0.0000 0.0000 0.0000 0.0000 0.0000 0.0000 0.0000 0.0000 0.0000 0.0000 0.0000 0.0000 0.0000 0.0000 0.0000 0.0000 0.0000 0.0000
0.0000 0.0000 0.0000 0.0000 0.0000 0.0000 0.0000 0.0000 0.0000 0.0000 0.0000 0.0000 0.0000 0.0000 0.0000 0.0000 0.0000 0.0000 0.0000 1.5708 0.7707 -1.9296 -1.9333 -1.8063 -1.5708 1.2490 -1.8491 -2.1910 2.8966 3.1416 -2.2143 -2.2455 -1.7682 -1.5708 -1.7819 -2.0899 -2.6779 -1.8925 -1.6815 -2.1294 -2.2143 -1.9513 -1.8158 -1.5708 -1.5708 -1.5708 -2.3562 2.6779 3.1416 -0.7854 -1.5708 -1.7127 -1.9757 -1.7895 -1.7819 -1.7234 -1.7127 -1.7682 -0.0254 -0.0191 -0.7934 -0.7985 0.0000 0.0000 0.0000 0.0000 0.7757 0.7854 -0.0398 -0.0526 -0.0288 -0.0250 -0.0255 -0.0302 -0.0437 -0.0400 -0.0228 -0.7854 -0.0280 0.7878 -0.0144 -1.1071 0.0000 -0.7854 -0.7854 -1.1071 3.1416 1.7127 1.8158 -1.8925 -1.5708 -1.5708 -1.5708 2.5536 2.3562 -2.0344 -1.3258 -1.5708 1.5708 -1.5708 -0.7854 -0.7854 -1.3734 -1.1071 -1.1071 -1.5708 3.1416 -1.5708 -1.5708 -1.1071 0.0000 0.1974 0.0000 -0.6435 -1.1071 -1.5708 2.6779 -2.8966 -2.9997 -2.9229 -3.0309 2.7367 2.8198 3.1416 -2.8966 -2.8966 -2.1588 -1.8158 -2.3562 -2.0344 -2.3562 -2.6779 2.6779 1.8158 1.8925 0.0000 -1.8158 -2.3562 2.0344 1.5708 -1.8491 -2.6779 2.1588 -2.3562 -1.5708 -1.5650 -1.5708 0.0000 0.0000 0.0000 0.0000 0.0000 0.0000 0.0000 0.0000 0.0000 0.0000 0.0000 0.0000 0.0000 0.0000 0.0000 0.0000 0.0000 0.0000 0.0000 0.0000 0.0000 0.0000 0.0000 0.0000 0.0000 0.0000
0.0000 0.0000 0.0000 0.0000 0.0000 0.0000 0.0000 0.0000 0.0000 0.0000 0.0000 0.0000 0.0000 0.0000 0.0000 0.0000 0.0000 0.0000 0.0000 0.7906 1.5793 -2.0344 -2.0206 -1.6506 -0.4636 1.8925 -2.3562 -2.1910 2.9442 3.1416 -2.6779 -2.4469 -2.1112 -1.9138 -1.8491 -1.7127 -2.6779 -2.3562 -2.0779 -2.1294 -2.4669 -1.8623 -1.8158 -1.9196 -1.8491 -1.9757 -2.3562 2.6779 3.1416 -2.3562 -2.0344 -1.9757 -1.8491 -1.8925 -1.3597 -1.3045 -1.2925 -1.3397 -1.1071 -1.1071 -1.3440 -0.7952 -0.7904 0.7638 0.7724 -0.0454 -0.0504 -1.5708 -1.4056 -0.7266 -0.5667 -0.6747 -0.7266 -0.7086 -0.6610 -0.7378 -0.7188 -0.6947 -0.0413 -1.1903 0.5880 0.0000 -1.5708 -1.1071 -2.3562 -2.6779 3.1416 2.2143 2.6779 -2.4330 -2.0344 -1.3258 -1.3258 3.1416 2.6779 3.1416 -2.6779 -2.3562 2.8966 3.1416 -2.3562 -2.3562 -1.8158 -1.1903 -1.0304 -1.3258 -2.6779 3.1416 -2.0344 -1.5708 0.7854 0.5880 0.0000 -0.7854 -0.7854 -0.7854 -0.9828 -2.1588 -2.4981 3.1416 2.4981 2.1588 2.5536 3.1416 -2.6779 -2.6779 -2.3562 -2.2143 -2.3562 -2.5536 -2.3562 -2.5536 2.5536 1.8158 1.5708 0.0000 -1.5708 -1.5708 2.0344 2.3562 -2.0899 -1.1071 1.8925 -0.7854 -0.7854 -1.5650 -1.5708 0.0000 0.0000 0.0000 0.0000 0.0000 0.0000 0.0000 0.0000 0.0000 0.0000 0.0000 0.0000 0.0000 0.0000 0.0000 0.0000 0.0000 0.0000 0.0000 0.0000 0.0000 0.0000 0.0000 0.0000 0.0000 0.0000
0.0000 0.0000 0.0000 0.0000 0.0000 0.0000 0.0000 0.0000 0.0000 0.0000 0.0000 0.0000 0.0000 0.0000 0.0000 0.0000 0.0000 0.7744 0.7886 -0.0323 -2.4429 -2.1855 -2.4062 -2.5749 -3.0828 -2.8319 -2.6955 -2.7744 2.9442 -2.9148 -2.6012 -2.8198 -2.4559 -2.0989 -1.7682 -1.9513 -2.6779 -2.3562 -2.1375 -2.1294 -2.8198 -2.4150 -2.0647 -2.2143 -2.0344 -2.0344 -2.7928 3.1416 2.7744 1.7682 -2.3562 -2.0344 -1.5708 -1.8158 -1.3258 -1.2490 -1.2723 -1.1903 -1.1526 -1.1659 -1.2278 -1.0517 -0.0631 -0.0866 -1.3734 -1.5708 -1.7895 -1.3258 -0.2450 -0.2450 -0.4049 -0.5517 -0.6435 -0.6610 -0.5404 -0.6202 -0.5586 -0.5517 -0.6947 -0.5071 -0.2187 -1.7682 -2.5536 -1.5708 -2.1910 -2.7828 2.9442 2.4469 3.1416 -2.4330 -2.7611 3.1416 -1.9513 -0.7854 1.5708 -0.7854 -2.6779 -2.1588 -2.9442 -3.0309 -3.0309 3.1416 -2.9764 -2.5536 -2.1112 -1.7359 -2.5536 3.1416 -2.8966 2.3562 1.2490 2.3562 3.1416 -2.8198 -2.4981 -1.8158 -1.9513 -1.8491 -1.7682 -2.3562 2.7828 2.4669 2.9442 3.0309 3.1416 -2.9229 -2.7611 -2.8501 -2.8966 -2.8198 -2.8198 -2.8966 2.4669 1.7127 1.5708 3.1416 -2.0344 -1.8158 2.8198 3.0172 -2.7367 0.7854 1.5708 0.5880 -1.1071 -1.5765 -1.5708 0.0000 0.0000 0.0000 0.0000 0.0000 0.0000 0.0000 0.0000 0.0000 0.0000 0.0000 0.0000 0.0000 0.0000 0.0000 0.0000 0.0000 0.0000 0.0000 0.0000 0.0000 0.0000 0.0000 0.0000 0.0000 0.0000
0.0000 0.0000 0.0000 0.0000 0.0000 0.0000 0.0000 0.0000 0.0000 0.0000 0.0000 0.0000 0.0000 0.0000 0.0000 0.0000 1.5708 0.7750 -2.1815 -2.4117 -2.4258 -2.1112 -1.8737 -1.7127 -2.2896 -3.0119 2.8706 2.7828 3.0828 3.1416 3.1416 -2.1588 -2.1294 -1.9513 -1.6815 -1.7506 -2.4469 -2.3562 -1.9296 -2.0899 -2.2143 -2.3996 -2.0344 -1.8158 -1.5708 -1.5120 -1.9138 2.9764 2.0344 2.4150 -2.5830 -2.6779 -1.8158 -1.4289 -1.7895 -1.3521 -1.4056 -1.5708 -1.5708 -1.5708 -1.2120 -0.9653 -1.2490 -1.2611 -1.3473 -1.1071 -1.1760 -0.6435 1.0304 0.5880 -0.7086 -1.0304 -1.2490 -1.3258 -0.3805 -0.3805 -0.5191 -0.6435 -0.7854 -0.6747 -0.7854 -1.4877 -0.3218 -1.5708 -1.5708 -2.6779 2.0344 2.1588 2.8966 -2.1112 -2.0344 -2.9442 3.1416 1.1071 1.2490 -0.9273 -1.9513 -0.9828 -1.2490 -2.0344 -2.8198 2.8198 2.9764 -2.8633 -2.6779 -2.2143 -2.2143 -2.8966 2.9442 2.2143 2.5536 -2.3562 -2.6779 -2.4669 -2.8633 -2.6779 -2.3562 -2.5536 -1.8925 -1.5708 3.1416 2.5536 -2.8966 -2.7828 -2.9997 -2.7828 -2.6224 -2.8966 -2.9997 -2.7367 -2.8198 2.8198 1.7895 1.5708 2.0344 -2.6779 -2.4981 -1.8925 -2.1588 -2.9764 2.5536 1.5708 1.5708 3.1416 -2.1588 -1.5823 -0.7943 0.0000 0.0000 0.0000 0.0000 0.0000 0.0000 0.0000 0.0000 0.0000 0.0000 0.0000 0.0000 0.0000 0.0000 0.0000 0.0000 0.0000 0.0000 0.0000 0.0000 0.0000 0.0000 0.0000 0.0000 0.0000 0.0000
0.0000 0.0000 0.0000 0.0000 0.0000 0.0000 0.0000 0.0000 0.0000 0.0000 0.0000 0.0000 0.0000 0.0000 0.0000 0.0000 0.7752 1.6352 -2.0032 -2.1815 -2.0344 -1.5708 -1.1071 -0.9273 -0.8903 -0.6747 -0.7854 -2.8198 2.9562 2.5360 2.5830 -2.6779 -1.8491 -1.8158 -1.9513 -1.4711 -1.3734 -2.1588 -1.3909 -1.9974 -2.2455 -2.2143 -2.0344 -1.2490 -1.4056 -1.4142 -0.8851 -0.2915 1.1071 2.6779 -2.8966 -3.0172 3.1416 -2.4469 -1.9757 -1.6952 -1.7033 -1.8568 -1.4601 -0.7854 -1.0304 -1.4711 -1.3734 -1.3521 -1.4142 -1.0304 -0.9505 -0.4993 -0.3218 2.8966 -2.1588 -1.4801 -1.5708 -1.2490 0.3805 -0.1974 -0.7854 -1.0637 -1.1071 -1.1071 -1.3045 -0.9601 -0.3588 -1.2925 -1.0714 -1.3258 1.8925 0.7854 -2.6779 -1.8158 -1.5708 -1.5708 0.7854 2.0344 2.7367 -2.3562 -1.5708 0.7854 -0.7854 -1.1071 -0.7854 -0.9828 -2.1112 -2.8198 -2.8966 -2.4981 -2.1588 -2.5536 3.1416 2.4981 2.5536 3.1416 -2.1588 -2.3562 -2.3562 -2.9442 -2.2143 -2.2143 -2.8198 -2.1910 -2.3562 2.9229 2.9229 2.7611 3.1416 -2.5536 -1.8158 -1.8925 -2.3562 -2.0344 -2.0344 2.0344 1.6705 1.9296 3.1416 -2.6779 -2.8966 -2.5536 -2.0344 0.0000 1.2490 1.8158 2.6779 -2.8198 -2.6012 -2.0344 -0.8003 -1.5708 0.0000 0.0000 0.0000 0.0000 0.0000 0.0000 0.0000 0.0000 0.0000 0.0000 0.0000 0.0000 0.0000 0.0000 0.0000 0.0000 0.0000 0.0000 0.0000 0.0000 0.0000 0.0000 0.0000 0.0000 0.0000
0.0000 0.0000 0.0000 0.0000 0.0000 0.0000 0.0000 0.0000 0.0000 0.0000 0.0000 0.0000 0.0000 0.0000 0.0000 1.5708 0.7647 -1.8737 -1.7455 -1.6539 -1.9380 -1.5708 -0.9273 -0.9828 -0.9151 -0.8520 -1.3045 -1.6421 3.1416 2.4669 2.5749 3.1416 -2.6224 -2.4228 -2.3562 -1.5708 -1.5708 -1.8925 -1.3045 -1.5120 -1.6815 -1.9513 -1.5708 -2.0344 -1.9974 -1.7682 -0.6610 -0.7854 -0.5191 0.9828 -0.5404 -1.6952 -2.8633 -3.0419 -2.6224 -2.2896 -1.9296 -1.9138 -0.5880 -0.4636 -1.3045 -1.6539 -1.6332 -1.4559 -1.3633 -1.1442 -0.8380 -0.7188 -1.0304 -2.0344 -3.0309 -2.0344 -1.7506 -0.7854 0.4636 -0.7854 -1.2120 -1.3045 -1.4940 -1.3909 -1.1071 -0.7188 -0.8761 -0.9828 -1.1071 -1.3521 1.2490 1.1071 -2.3562 -1.8925 -1.5708 0.0000 -0.7854 -1.8925 3.1416 2.6012 1.5708 2.0344 -1.3258 -1.5708 -1.5708 -1.5708 -1.7127 -2.1588 -2.6779 -2.3562 -1.8925 -2.1588 3.1416 2.3562 2.3562 2.5536 -1.8925 -2.2143 -1.8925 -2.4981 -2.5536 -1.9513 -2.2455 -2.1910 -2.3562 2.3562 2.5536 2.5536 2.8198 3.1416 -2.0344 -1.5708 -1.5708 -1.5708 -2.0344 1.5708 1.7127 2.1112 -2.8966 -2.8966 3.1416 -2.8198 3.1416 1.1071 0.7854 3.1416 3.1416 -2.9442 -2.6779 -2.2143 -1.5887 -1.5708 0.0000 0.0000 0.0000 0.0000 0.0000 0.0000 0.0000 0.0000 0.0000 0.0000 0.0000 0.0000 0.0000 0.0000 0.0000 0.0000 0.0000 0.0000 0.0000 0.0000 0.0000 0.0000 0.0000 0.0000 0.0000
0.0000 0.0000 0.0000 0.0000 0.0000 0.0000 0.0000 0.0000 0.0000 0.0000 0.0000 0.0000 0.0000 0.0000 0.0000 0.7915 1.5898 -1.6643 -1.5708 -1.3258 -1.2723 -1.1071 -0.7854 -1.1526 -1.4940 -1.3854 -1.2178 -1.1384 -0.8761 0.4636 2.7234 3.0309 -2.6779 -2.2794 -2.8198 -2.5536 -1.8925 0.0000 -1.7895 -1.3734 -1.1384 -1.2925 -1.1071 -1.8370 -1.8623 -2.3562 -2.3562 -1.7682 -1.2490 0.7854 -1.3258 -1.2723 -1.5708 -2.4469 -2.7234 -2.4805 -2.0647 -2.1294 1.1071 -1.1071 -1.4877 -1.4995 -1.3854 -1.3909 -1.2847 -1.1071 -1.0714 -1.2490 -1.2723 -1.4289 -2.4669 -2.5536 -2.1588 -2.5536 3.1416 3.1416 -2.3562 -1.7506 -1.6476 -1.3258 -0.8961 -0.9273 -1.0517 -0.8761 -1.2723 -1.2490 0.5880 -1.5708 -2.1588 -2.0344 0.0000 0.0000 -1.5708 -1.2490 0.0000 1.2490 2.8966 2.6779 -2.6779 -1.7127 -2.3562 -2.2143 -1.8491 -2.1588 -2.6779 -2.0344 -1.8925 -1.5708 3.1416 2.3562 2.3562 2.5536 -2.3562 -2.2143 -2.1588 -2.1588 -2.3562 -2.2455 -2.1112 -2.0899 -1.5708 2.1588 2.3562 2.5536 2.8966 3.1416 -2.3562 -1.5708 -2.6779 -2.1588 -2.0344 2.0344 1.7127 2.1112 -2.6779 -2.6779 3.1416 -2.8966 3.1416 2.5536 2.8966 -2.7611 -2.5536 -2.8966 -2.8198 -2.1588 -1.5828 -1.5708 0.0000 0.0000 0.0000 0.0000 0.0000 0.0000 0.0000 0.0000 0.0000 0.0000 0.0000 0.0000 0.0000 0.0000 0.0000 0.0000 0.0000 0.0000 0.0000 0.0000 0.0000 0.0000 0.0000 0.0000 0.0000
0.0000 0.0000 0.0000 0.0000 0.0000 0.0000 0.0000 0.0000 0.0000 0.0000 0.0000 0.0000 0.0000 0.0000 1.5708 0.7906 -2.3848 -1.7005 -1.3045 -1.1071 -1.0427 -0.6747 -0.3488 -0.9273 -1.2278 -0.8961 -1.0460 -1.1071 -0.4182 -0.6435 -1.8158 2.8198 -2.6779 -1.5708 -1.7359 -2.8966 3.1416 -1.5708 -1.9513 -1.4601 -1.1071 -0.7266 -0.8442 -1.1659 -1.1384 -1.5708 -2.7828 -2.6224 3.1416 2.4981 -2.8966 -1.3521 -1.5708 -1.3734 -2.2794 -2.4330 -1.9656 -2.1588 1.9513 -2.1588 -1.4877 -1.2793 -1.1384 -1.4056 -1.3521 -1.1903 -1.1071 -1.1526 -1.1442 -1.0808 -1.1526 -1.8491 -1.9296 -2.7828 3.0172 -2.8753 -2.5749 -2.3562 -1.6815 -1.5708 -1.1071 -0.8622 -0.9505 -0.9828 -1.4289 -1.2793 0.0000 -1.8925 -2.1588 -2.6779 3.1416 3.1416 -1.1071 -0.3218 -0.1651 -1.4056 -2.6224 -2.8633 -3.0509 -2.6779 -2.5536 -2.6224 -2.3562 -2.6012 3.1416 -2.8198 -2.5536 -2.1588 -2.3562 3.1416 2.7611 2.7611 -2.6012 -2.4981 -2.6779 -2.6012 -2.3562 -2.3562 -2.4469 -2.7234 -2.3562 2.8966 2.8966 3.1416 3.1416 2.8966 2.7611 -2.3562 -2.1588 -2.5536 -2.3562 2.0344 2.1112 2.6224 3.1416 -2.8198 -2.6779 -2.6779 2.8966 2.9442 -2.9764 2.9997 2.8198 -2.8198 3.1416 -2.1588 -1.5829 -1.5708 0.0000 0.0000 0.0000 0.0000 0.0000 0.0000 0.0000 0.0000 0.0000 0.0000 0.0000 0.0000 0.0000 0.0000 0.0000 0.0000 0.0000 0.0000 0.0000 0.0000 0.0000 0.0000 0.0000 0.0000 0.0000
0.0000 0.0000 0.0000 0.0000 0.0000 0.0000 0.0000 0.0000 0.0000 0.0000 0.0000 0.0000 0.0000 0.0000 1.5708 1.5876 -2.3562 -1.5708 -1.2793 -1.4464 -1.1659 -0.5880 -0.6202 -1.2490 -1.2925 -1.1071 -1.3633 -1.2490 -0.8761 -1.2490 -1.2925 0.0000 -0.7854 -1.5708 -1.5708 -2.0899 2.7611 3.1416 -1.8158 -1.5708 -1.3734 -0.6747 -1.0637 -1.2036 -1.2120 -1.4659 -1.9890 -2.2455 3.1416 2.4981 2.7611 -1.5708 -1.6815 -1.3045 -1.7234 -2.0344 -1.7682 -1.7682 1.8158 -2.6779 -1.4289 -1.2490 -1.4382 -1.5292 -1.4537 -1.3258 -1.2220 -1.2793 -1.2490 -1.2490 -1.3597 -1.5708 -1.6539 -2.0899 -2.6012 -2.8966 -2.9997 -2.8966 -1.7127 -1.4056 1.5708 -0.9273 -1.3521 -1.4601 -1.6421 -1.2793 -2.0344 -2.4669 -2.0344 -2.6779 2.3562 2.3562 3.1416 -2.6779 -2.6779 -1.9513 -2.0899 -2.8198 2.9442 -2.6779 -2.4228 -2.6779 -2.6345 -3.0172 2.9764 -2.9442 -2.8198 -2.8198 -2.9442 -2.9997 2.9997 2.8633 -2.6779 -2.1588 -2.2143 -2.6779 -2.6779 -2.2794 -2.2143 -2.7828 2.9442 2.9442 3.1416 -2.7611 -2.9442 2.6779 2.4669 2.8198 -2.0344 -2.0344 0.0000 0.0000 2.6779 2.4981 2.3562 3.1416 -2.6779 -1.5708 -2.3562 3.1416 -2.6779 2.6779 2.3562 -2.3562 3.1416 -2.0344 -1.5769 -1.5708 0.0000 0.0000 0.0000 0.0000 0.0000 0.0000 0.0000 0.0000 0.0000 0.0000 0.0000 0.0000 0.0000 0.0000 0.0000 0.0000 0.0000 0.0000 0.0000 0.0000 0.0000 0.0000 0.0000 0.0000 0.0000
0.0000 0.0000 0.0000 0.0000 0.0000 0.0000 0.0000 0.0000 0.0000 0.0000 0.0000 0.0000 0.0000 0.0000 0.7802 1.5771 -1.7895 -1.8370 -1.6705 -1.4464 -0.8622 -0.3805 -0.6202 -1.1903 -0.9505 -0.7378 -1.1723 -0.9828 -0.5880 -0.9828 -0.7854 0.0000 -0.3218 -1.4056 -1.3734 -1.5708 2.5536 3.1416 -2.1294 -1.8925 -1.7682 -1.5708 -1.6815 -1.1384 -1.1584 -1.1284 -1.5708 -2.1112 3.1416 1.8925 2.6779 -2.1112 -1.5708 -1.5708 -1.6476 -1.5708 -1.7682 -1.7682 2.2143 -2.8198 -1.9757 -1.8925 -1.6374 -1.5292 -1.3397 -1.1071 -1.2220 -1.0304 -1.0637 -1.2490 -0.9995 -0.8330 -0.9273 -0.9505 -1.2925 -1.9513 2.8966 3.1416 -2.5536 -2.3562 3.1416 -2.3562 -1.9890 -1.9890 -1.8925 -1.5708 -1.4464 -1.8158 3.1416 3.1416 3.1416 3.1416 -2.8633 -2.6779 -2.8198 -2.4330 -1.8925 -2.4981 2.3562 -2.6224 -2.0344 -2.3562 -2.2655 3.1416 2.6779 -2.9997 -2.6012 -2.8198 -2.7828 -2.9229 2.9229 2.6779 2.8633 -2.7611 -2.3562 -2.2655 -2.5536 -2.4330 -2.3562 -2.6012 2.9997 3.1416 2.9764 2.8198 -2.6779 2.0344 1.9513 2.7611 -2.8966 -2.6779 3.1416 3.1416 2.8966 2.3562 2.3562 3.1416 -1.5708 -2.3562 -0.7854 0.0000 -1.5708 2.6779 2.3562 -2.6779 3.1416 -2.0344 -1.5829 -1.5708 0.0000 0.0000 0.0000 0.0000 0.0000 0.0000 0.0000 0.0000 0.0000 0.0000 0.0000 0.0000 0.0000 0.0000 0.0000 0.0000 0.0000 0.0000 0.0000 0.0000 0.0000 0.0000 0.0000 0.0000 0.0000
0.0000 0.0000 0.0000 0.0000 0.0000 0.0000 0.0000 0.0000 0.0000 0.0000 0.0000 0.0000 0.0000 1.5708 0.7864 -1.9196 -1.8925 -2.0344 -1.7359 -0.2450 0.1799 -0.1489 -0.6055 -0.8761 -0.5124 -0.6147 -0.8380 -0.5468 -0.4101 -0.5028 -0.2783 -0.2075 -0.5667 -1.1659 -1.3909 -1.4877 -1.5708 -2.8633 -2.7234 -2.8198 -2.7367 -2.2143 -1.8925 -0.5586 -0.8685 -1.2036 -1.4758 -1.7127 2.8198 2.9442 3.1416 -2.9442 -1.7359 -1.4056 -1.3440 -1.5708 -1.6615 -0.9828 2.3562 -2.8966 -1.9757 -1.7127 -1.3909 -1.0863 -0.7188 -0.3985 -0.5713 -0.6857 -1.0304 -1.0714 -0.6857 -0.7023 -0.8819 -0.8622 -0.8961 -1.0637 -2.3562 -2.6012 -2.4805 -2.6422 3.0648 -2.9889 -2.3562 -2.2318 -2.0344 -2.1112 -1.2490 -0.9273 -1.1903 -2.0344 -2.6779 -2.9764 -2.8198 -2.8198 -2.9997 -2.6779 -2.0344 -2.6779 -1.5708 -2.4469 -1.5708 -1.5708 -1.4056 -1.5708 3.1416 3.1416 -2.8966 -2.3562 -2.3562 -2.6779 3.1416 2.7234 2.8753 -2.8633 -2.6779 -2.6779 -2.4469 -2.2143 -2.3562 -2.4981 -2.9764 2.7611 2.3562 2.7611 2.8966 2.3562 3.1416 -2.9442 3.0172 -2.9442 -2.9764 -2.9997 2.9997 2.6779 2.6779 2.6779 3.1416 3.1416 1.5708 -0.7854 -1.3258 -1.5708 2.3562 -2.8198 2.6779 -2.6779 -1.5830 -0.7885 0.0000 0.0000 0.0000 0.0000 0.0000 0.0000 0.0000 0.0000 0.0000 0.0000 0.0000 0.0000 0.0000 0.0000 0.0000 0.0000 0.0000 0.0000 0.0000 0.0000 0.0000 0.0000 0.0000 0.0000 0.0000
0.0000 0.0000 0.0000 0.0000 0.0000 0.0000 0.0000 0.0000 0.0000 0.0000 0.0000 0.0000 0.0000 1.5708 1.5939 -1.5708 -1.3734 -1.6815 -0.3218 0.6747 1.1526 -0.1244 -0.7854 -0.7454 -0.5281 -0.5517 -0.6255 -0.4101 -0.3218 -0.3218 -0.1927 -0.2573 -0.5302 -0.7854 -0.8288 -0.9098 -0.8761 -1.4601 -1.9757 -2.5536 -2.9229 2.8633 2.6779 -2.3562 -1.4289 -1.6775 -1.4711 -1.4940 -2.5536 2.8501 2.6779 3.1416 -2.6779 -1.5708 -0.9380 -1.3734 -0.9828 -0.6435 -0.7854 -1.5708 -0.9273 -0.7854 -0.5880 -0.8380 -0.5880 -0.5880 -1.0863 -1.2998 -1.4995 -1.4711 -1.2925 -1.2120 -1.2036 -1.0769 -1.1659 -1.3961 -1.7895 -1.9513 -1.9513 -2.0779 -2.8633 3.1416 -2.6012 -2.0344 -1.8158 -1.8158 2.3562 -0.7854 -1.0517 -1.4056 -1.5708 -1.9513 -2.2455 -2.6779 3.1416 -2.8198 -2.0344 -2.3562 -1.8925 -2.0344 -1.5708 -1.3258 -1.4056 -1.3258 -1.8925 -2.3562 -2.5536 -2.5536 -1.5708 -1.8925 -1.8925 -2.8966 2.5536 2.8198 -2.1112 -2.3562 -2.6224 -2.4330 -2.4469 -2.6012 3.1416 2.3562 2.8966 2.9997 2.9997 2.7828 2.7828 -2.6012 -3.0309 2.9764 -2.7611 -2.9764 3.1416 2.8966 2.6345 2.6345 2.7828 2.8198 2.7611 2.8198 -1.5708 -0.7854 -2.3562 -2.3562 -1.5708 -2.6779 -2.0344 -0.7885 -1.5708 0.0000 0.0000 0.0000 0.0000 0.0000 0.0000 0.0000 0.0000 0.0000 0.0000 0.0000 0.0000 0.0000 0.0000 0.0000 0.0000 0.0000 0.0000 0.0000 0.0000 0.0000 0.0000 0.0000 0.0000
0.0000 0.0000 0.0000 0.0000 0.0000 0.0000 0.0000 0.0000 0.0000 0.0000 0.0000 0.0000 0.0000 1.5708 1.5708 0.3218 -0.9601 -0.9828 0.0000 0.0000 1.5708 0.8520 -0.7086 -0.7230 -0.5124 -0.3393 -0.5317 -0.2141 0.0000 0.0713 -0.0161 -0.2311 -0.4210 -0.4336 -0.3769 -0.6055 -0.8961 -1.0304 -1.2220 -1.6952 -2.3562 2.9997 2.8198 3.0509 -2.2035 -1.8693 -1.7455 -1.6374 -1.2490 2.4981 1.7682 -2.6779 -2.3562 2.6779 -1.2220 -1.4995 -1.0304 -0.8761 -1.5708 -1.5708 -0.7854 -0.9273 -1.2490 -1.7234 -1.4464 -1.5708 -1.6234 -1.6263 -1.4289 -1.5708 -1.7127 -1.3258 -1.3440 -1.4940 -1.5708 -1.5120 -1.3521 -1.1903 -1.5708 -1.6815 -2.5536 3.1416 -2.4981 -2.0344 -1.5708 -1.5708 2.3562 -2.3562 -1.5708 -1.2490 -1.5708 -1.7682 -1.7682 -2.3562 3.1416 -2.8966 -2.7611 -2.3562 -1.8925 -1.5708 -2.0344 -2.0344 -1.5708 -1.8158 -1.5708 -1.5708 -2.3562 -2.6779 -2.5536 -2.3562 -2.3562 -3.0509 2.7928 3.0585 -2.6345 -2.4805 -2.4150 -2.4228 -2.5536 -2.3562 2.6779 2.3562 -2.8966 -2.9442 3.1416 2.8966 2.8501 -2.8966 3.1416 2.4981 -2.8198 -2.3562 -2.8966 2.9442 2.6779 2.6224 2.8198 2.8198 2.6779 2.3562 2.8198 -2.3562 -2.6779 3.1416 -2.5536 -2.3562 -2.6779 -1.5771 -1.5708 0.0000 0.0000 0.0000 0.0000 0.0000 0.0000 0.0000 0.0000 0.0000 0.0000 0.0000 0.0000 0.0000 0.0000 0.0000 0.0000 0.0000 0.0000 0.0000 0.0000 0.0000 0.0000 0.0000 0.0000
0.0000 0.0000 0.0000 0.0000 0.0000 0.0000 0.0000 0.0000 0.0000 0.0000 0.0000 0.0000 0.0000 1.5708 1.5604 0.3805 -0.7378 -0.7854 -0.5880 0.0000 0.9653 1.2490 -0.4266 -0.6557 -0.3530 -0.3709 -0.3081 -0.0370 0.3321 3.0860 3.1018 -3.1304 -3.0706 -0.3612 -0.4398 -0.7369 -0.8685 -0.6823 -0.9995 -1.1760 -1.2120 -2.1588 -2.8633 -2.8753 -2.4393 -1.8623 -1.7234 -1.0517 -0.6610 -0.1974 1.1071 0.0000 -1.4056 -2.8633 -2.2896 -1.8370 -2.5536 -1.6815 -1.8925 2.8966 -2.8198 -2.3562 -2.1588 -1.9196 -1.2490 -1.6539 -1.6705 -1.5042 -1.2723 -1.6476 -2.1112 -1.3258 -1.4289 -1.5084 -1.4995 -1.4382 -1.0122 -1.0517 -1.4181 -1.5708 -2.2143 -2.9442 -2.6779 -2.6779 -1.7682 -1.1903 -1.5708 -2.6779 -2.5536 -1.7359 -1.5708 -1.8925 -1.7359 -1.9513 -2.8198 -2.8633 2.9764 2.1588 -2.5536 -1.5708 -1.5708 -2.4981 -2.3562 -2.0344 -1.5708 -1.5708 -2.2655 -2.4981 -2.9997 -2.7828 -2.2565 -2.4981 2.9669 2.9997 -3.0419 -2.8966 -2.8753 -2.6012 1.5708 -0.7854 -1.5708 2.5536 -2.8966 -2.4981 -2.8633 2.9997 2.8501 3.0172 2.3562 2.0344 3.1416 -2.0344 -1.8925 3.1416 2.1588 2.5536 2.9764 2.7367 2.3562 1.8925 3.1416 -2.6779 -2.6779 -2.7611 -2.7611 -2.8966 3.1416 -1.5898 -1.5708 0.0000 0.0000 0.0000 0.0000 0.0000 0.0000 0.0000 0.0000 0.0000 0.0000 0.0000 0.0000 0.0000 0.0000 0.0000 0.0000 0.0000 0.0000 0.0000 0.0000 0.0000 0.0000 0.0000 0.0000
0.0000 0.0000 0.0000 0.0000 0.0000 0.0000 0.0000 0.0000 0.0000 0.0000 0.0000 0.0000 0.0000 1.5708 1.5646 1.0122 -0.8520 -1.1071 -0.7854 0.4636 0.8961 1.2793 -0.4636 -0.9505 -0.4182 -0.3588 -0.0768 0.1419 -1.5372 -2.3499 3.1416 3.1416 2.3299 2.3175 -3.0194 -1.1734 -1.2490 -1.0899 -1.3045 -1.2925 -1.2220 -1.4601 -1.8925 -2.3562 -2.0344 -1.5708 -0.7854 -0.5191 -0.7266 -0.6747 3.1416 -2.8198 -2.1294 -2.1112 -2.0899 -1.5708 -1.5708 -2.1588 -1.5708 -2.3562 -2.6224 -2.5309 -2.6779 -2.2455 -1.5708 -1.7127 -1.5708 -1.3258 -1.3258 -1.5708 -0.8961 -1.8925 -1.7234 -1.5708 -1.4181 -1.3440 -0.9505 -1.1071 -1.3597 -1.4289 -1.2925 -1.8925 -2.3562 -0.7854 -1.5708 -0.7854 -1.0304 -1.7359 -2.5536 -2.8198 -2.1588 -1.7359 -1.7682 -1.7127 -1.9513 -2.8198 1.8925 2.6779 -2.8198 -2.6779 -1.7359 -1.8925 -2.7234 2.8198 -1.5708 -1.5708 -2.0344 -1.5708 -2.1588 -2.3562 -2.2794 -1.6815 -2.4469 -2.9229 3.1416 2.8633 2.6012 1.8158 0.7854 -1.5708 -1.1071 -2.3562 -2.3562 -2.0344 -2.3562 -2.8198 2.7611 2.2455 1.7359 1.8158 3.1416 -2.3562 -1.5708 0.0000 1.5708 3.1416 -2.6779 2.5536 1.8925 1.7127 2.6779 0.0000 -1.8158 -2.3562 -2.6779 3.1416 3.1416 -1.5835 -1.5708 0.0000 0.0000 0.0000 0.0000 0.0000 0.0000 0.0000 0.0000 0.0000 0.0000 0.0000 0.0000 0.0000 0.0000 0.0000 0.0000 0.0000 0.0000 0.0000 0.0000 0.0000 0.0000 0.0000 0.0000
0.0000 0.0000 0.0000 0.0000 0.0000 0.0000 0.0000 0.0000 0.0000 0.0000 0.0000 0.0000 0.0000 1.5708 2.3479 0.7266 -0.7266 -0.9505 -0.6202 0.4049 0.9601 1.2793 -0.9828 -0.7188 -0.4182 -0.2915 -0.0907 0.1326 -1.5393 -1.5708 0.0000 0.0000 0.0000 3.1416 2.4015 2.4000 -0.6913 -0.4551 -0.6172 -0.5281 -0.4825 -0.4636 -0.8520 -1.1071 -1.1071 -0.7854 -0.4636 -0.4636 -0.6857 -1.1442 -1.5708 -2.3562 -2.6012 -0.4636 -1.7682 -1.0517 -0.8761 -1.3521 -1.4289 -1.2490 -2.3562 -2.2896 -2.7828 -3.0172 -2.5536 -1.8158 -1.5042 -1.0714 -1.2120 -0.8685 -0.5880 -1.0304 -1.6476 -1.5708 -1.3045 -1.2490 -1.1659 -1.3521 -1.7682 -1.5708 -1.1659 -1.3734 -2.3562 0.0000 -1.5708 -2.0344 -1.5708 -1.5708 -1.9513 -2.7928 3.1416 -2.6779 -1.8925 -2.1588 -2.2143 -2.8198 3.1416 2.9997 3.1416 -2.8198 -2.5213 -1.9196 -2.3562 2.4469 2.9442 -1.7127 -1.8925 -2.0344 -1.7359 -1.7682 -1.9757 -1.7895 -2.1112 -2.6779 3.1416 2.3562 1.5708 1.1071 1.5708 -2.0344 -1.5708 -2.3562 -1.5708 -1.3258 -1.2490 -1.5708 1.5708 1.5708 1.5708 1.5708 0.0000 -2.3562 -1.5708 0.0000 1.5708 3.1416 -2.3562 2.5536 1.8925 2.3562 2.9764 3.1416 -2.3562 -2.3562 -2.8198 3.1416 3.1416 -1.5899 -1.5708 0.0000 0.0000 0.0000 0.0000 0.0000 0.0000 0.0000 0.0000 0.0000 0.0000 0.0000 0.0000 0.0000 0.0000 0.0000 0.0000 0.0000 0.0000 0.0000 0.0000 0.0000 0.0000 0.0000 0.0000
0.0000 0.0000 0.0000 0.0000 0.0000 0.0000 0.0000 0.0000 0.0000 0.0000 0.0000 0.0000 0.0000 0.0000 2.3388 1.5325 -0.3530 -0.6747 -0.5517 0.2663 0.4993 0.6947 0.3805 0.0000 -0.1171 -0.0500 0.1799 0.2552 -1.5240 -0.7597 0.0000 0.0000 0.0000 0.0000 0.0000 2.3346 1.3785 -0.5700 -0.7039 -0.4993 -0.4207 -0.6383 -0.8903 -0.6435 -0.5071 -0.5880 -0.4266 -0.3430 -0.9653 -1.0304 -0.7328 -0.7854 -0.3805 -0.1419 -1.7682 -1.3258 -1.3734 -1.2793 -1.1526 -1.5708 -1.9380 -2.3562 -2.4981 -2.9148 3.1416 -2.4805 -1.9296 -0.9505 -1.1442 -0.9048 -1.0304 -1.0769 -1.5182 -1.4711 -1.1526 -1.2036 -1.5708 -1.6421 -1.9296 -1.8158 -1.7359 -1.7127 -2.3562 3.1416 -2.5536 -2.6779 -2.5536 -1.6705 -1.6374 -1.9513 -3.0309 2.8753 -2.6012 -2.0344 -2.4669 -2.8198 -3.0172 3.1416 3.1416 -2.9442 -2.7234 -2.1910 -1.8925 2.9764 2.7234 -2.0344 -1.8491 -2.4981 -2.3562 -2.1910 -2.1294 -2.1588 -2.2794 -2.4981 2.9229 1.8925 1.7127 1.8158 -2.6779 -2.0344 -2.0344 -2.3562 0.0000 -1.2490 -0.9273 -1.1071 1.1071 1.3734 1.4056 1.5708 -1.5708 -2.8198 -1.5708 0.0000 2.3562 -2.3562 -1.8925 3.1416 2.5213 2.8633 2.8431 2.9617 -2.8198 -2.9229 -2.9442 3.1416 3.0703 -1.6421 -1.5708 0.0000 0.0000 0.0000 0.0000 0.0000 0.0000 0.0000 0.0000 0.0000 0.0000 0.0000 0.0000 0.0000 0.0000 0.0000 0.0000 0.0000 0.0000 0.0000 0.0000 0.0000 0.0000 0.0000 0.0000
0.0000 0.0000 0.0000 0.0000 0.0000 0.0000 0.0000 0.0000 0.0000 0.0000 0.0000 0.0000 0.0000 0.0000 1.5708 1.5254 -0.2954 -0.7610 -0.8224 0.1651 0.6947 0.6747 0.7854 0.4636 0.0768 0.1326 0.1107 0.1853 0.8961 0.0788 -0.7637 -0.7673 0.0000 0.0000 0.0000 1.5708 1.5088 -1.0799 -1.1965 -0.9670 -0.9545 -1.1619 -1.2161 -1.1071 -1.0637 -1.1071 -0.1974 -0.7854 -1.3597 -1.0304 -0.8442 -0.9828 -0.4636 -0.9505 -1.5708 -1.7682 -1.8158 -1.5708 -1.2793 -1.6374 -1.5708 -1.8370 -2.0344 -2.2896 3.1416 3.1416 -2.8198 -1.5708 -1.4711 -1.4877 -1.2793 -1.5042 -1.5182 -1.4601 -1.2925 -1.3854 -1.4940 -1.6374 -1.6952 -1.6952 -1.8925 -1.7359 -1.8925 -2.0344 -2.2655 -2.6779 -2.8966 -1.7359 -1.7976 -1.5708 -1.8491 2.9764 2.9997 -2.2655 -2.0344 -2.3562 -2.5536 -2.8966 3.1416 3.1416 3.1416 -2.0344 -1.5708 -2.3562 2.2455 3.1416 -1.8158 -2.0899 -2.3562 -2.5830 -2.2896 -2.1112 -2.2794 -2.4469 2.1112 1.9513 2.2455 1.8925 2.0344 -2.3562 -2.5536 3.1416 3.1416 -2.3562 -0.9828 -0.7854 0.5880 1.3734 1.3734 1.8925 -1.8925 -2.8198 2.3562 -0.7854 3.1416 0.0000 -2.1588 -1.8158 -2.8633 3.0585 2.8198 2.8431 -2.9229 -2.5536 -2.8633 -2.5536 -3.0509 -1.6267 -1.5708 0.0000 0.0000 0.0000 0.0000 0.0000 0.0000 0.0000 0.0000 0.0000 0.0000 0.0000 0.0000 0.0000 0.0000 0.0000 0.0000 0.0000 0.0000 0.0000 0.0000 0.0000 0.0000 0.0000 0.0000
0.0000 0.0000 0.0000 0.0000 0.0000 0.0000 0.0000 0.0000 0.0000 0.0000 0.0000 0.0000 0.0000 0.0000 1.5708 1.5111 -0.2915 -0.8254 -0.8551 -0.3218 0.6947 0.7854 0.9505 0.9505 0.3588 0.4636 0.5586 0.3218 0.6747 1.2766 1.3204 -0.7655 -1.5708 0.0000 0.0000 1.5708 2.3765 -1.0666 -1.0790 -3.0738 -3.0840 -1.0552 -1.0924 -1.1071 -0.8442 -0.7854 -0.1651 -0.9505 -1.2278 -0.9601 -0.9098 -0.9828 -0.4049 -0.7854 -1.1442 -0.8961 -1.1071 -1.2490 -1.1903 -1.3102 -1.3734 -1.6615 -1.8623 -2.5128 3.1416 3.1416 -3.0309 -2.8501 -2.1112 -1.8925 -1.7682 -1.6374 -1.5708 -1.5708 -1.7127 -1.5708 -1.2723 -1.5708 -1.4464 -1.8158 -1.7359 -1.8925 -0.9828 -1.5708 -1.5708 -2.6779 -2.9764 -2.4981 -2.1421 -2.0779 -1.8491 -2.3562 -2.8198 -2.7234 -2.6779 -2.3562 -2.4469 -2.5536 -2.8198 2.9997 2.3562 3.1416 -1.2490 -1.2490 -2.3562 -2.8966 -2.3562 -2.0344 -2.0779 -2.4228 -2.5536 -2.2896 -2.1910 -2.1588 1.8158 2.2143 2.1815 1.7127 -1.5708 -2.0344 -2.2143 3.1416 2.3562 2.3562 0.0000 -0.4636 0.0000 1.5708 1.8158 2.3562 -2.1588 -1.1071 1.8925 1.5708 0.0000 -2.0344 -2.2143 -1.9513 -2.2655 -3.0172 2.8198 2.6345 2.5536 3.1416 -2.0344 -2.0344 -2.3562 -1.5778 -1.5708 0.0000 0.0000 0.0000 0.0000 0.0000 0.0000 0.0000 0.0000 0.0000 0.0000 0.0000 0.0000 0.0000 0.0000 0.0000 0.0000 0.0000 0.0000 0.0000 0.0000 0.0000 0.0000 0.0000 0.0000
0.0000 0.0000 0.0000 0.0000 0.0000 0.0000 0.0000 0.0000 0.0000 0.0000 0.0000 0.0000 0.0000 0.0000 1.5708 1.5093 -0.3805 -0.8023 -0.7141 -0.4636 -0.1526 0.4049 0.7086 1.4464 1.5708 1.5708 1.7359 1.5708 1.4056 1.4365 1.3191 -1.5726 -1.5708 0.0000 0.0000 0.0000 2.3444 2.3645 -1.4682 -2.3030 2.3514 2.3599 -0.9404 -0.8961 -0.5880 -0.5191 -0.1244 -0.4636 -0.5880 -0.4182 -0.5317 -0.5404 -0.1244 -0.5124 -0.7509 -0.4636 -0.3805 -0.2187 -0.3097 -0.5350 -0.7854 -1.0391 -1.2793 -2.0344 -2.9617 2.9148 2.9341 3.1416 -2.8633 -2.5128 -2.3562 -1.9380 -1.6263 -1.5708 -1.8491 -1.7506 -1.7976 -1.8019 -1.5708 -2.0701 -2.1588 -2.4981 -2.6779 -2.1588 -1.7682 -2.2143 -2.3562 -2.6547 -2.6012 -2.5830 -2.4669 -2.6012 -2.4981 -2.5536 -2.9229 -2.6224 -2.4469 -2.8198 -2.8966 2.7611 2.2143 2.7611 -2.3562 -1.9513 -2.4669 -2.6012 -2.5536 -1.9296 -1.9974 -2.1588 -2.3562 -2.4330 -2.6779 -2.3562 2.3562 2.4669 2.1815 2.1815 2.8198 -1.8158 -1.2490 0.4636 1.1071 1.1071 0.0000 -1.5708 0.0000 2.0344 2.1588 2.5536 3.1416 0.0000 0.7854 3.1416 -1.5708 -2.3562 -1.8158 -1.8925 -1.8158 -2.4981 2.6012 2.1910 2.1112 2.8198 -2.5536 -2.3562 3.1416 -1.5849 -1.5708 0.0000 0.0000 0.0000 0.0000 0.0000 0.0000 0.0000 0.0000 0.0000 0.0000 0.0000 0.0000 0.0000 0.0000 0.0000 0.0000 0.0000 0.0000 0.0000 0.0000 0.0000 0.0000 0.0000 0.0000
0.0000 0.0000 0.0000 0.0000 0.0000 0.0000 0.0000 0.0000 0.0000 0.0000 0.0000 0.0000 0.0000 0.0000 1.5708 1.5275 -0.4347 -0.8362 -0.6823 -0.6610 -0.7509 -0.1419 0.1419 3.1416 2.7611 2.6012 2.3562 2.4150 2.1025 1.8693 1.8844 -1.5980 -1.5708 0.0000 0.0000 0.0000 0.0000 2.3730 3.1416 -1.5708 0.0000 2.3646 2.3663 -0.9653 -0.6660 -0.3672 0.0555 -0.2235 -0.4636 -0.5485 -0.5633 -0.4444 -0.0950 -0.3640 -0.3869 -0.1460 -0.0465 3.1294 -3.1385 -3.0790 -3.0387 -3.0581 -3.0395 -1.1760 -1.6332 2.8198 2.9341 3.0245 3.1416 -2.8387 -2.8633 -2.4981 -1.9138 -1.7682 -2.0779 -2.0074 -1.8925 -1.8491 -1.6815 -1.8925 -2.2143 -2.0344 -2.4981 -2.3562 -1.8158 -1.7895 -1.8158 -2.0344 -2.2455 -2.3562 -2.2143 -2.2455 -2.2655 -2.2455 -2.8966 -2.5536 -2.0344 -2.3562 -2.6779 2.3562 2.0344 2.6779 -2.3562 -2.0344 -2.3562 -2.3562 -2.6779 -1.7127 -1.6539 -1.7895 -1.9757 -1.9513 -2.6779 3.1416 3.1416 2.3562 1.9296 1.9196 1.9513 0.0000 -0.4636 0.0000 0.7854 0.7854 -1.5708 -1.5708 -1.5708 2.3562 1.5708 2.3562 2.6779 2.8198 3.1416 3.1416 -2.3562 -2.3562 -1.8925 -1.7359 -1.5708 -1.3258 1.5708 1.8491 1.8925 3.1416 -2.3562 -2.0344 2.3562 -1.5708 -1.5708 0.0000 0.0000 0.0000 0.0000 0.0000 0.0000 0.0000 0.0000 0.0000 0.0000 0.0000 0.0000 0.0000 0.0000 0.0000 0.0000 0.0000 0.0000 0.0000 0.0000 0.0000 0.0000 0.0000 0.0000
0.0000 0.0000 0.0000 0.0000 0.0000 0.0000 0.0000 0.0000 0.0000 0.0000 0.0000 0.0000 0.0000 0.0000 1.5708 2.3454 -3.1235 -0.8914 -0.7854 -0.9828 -1.0041 -0.5071 -0.3805 -0.7854 0.0000 1.1071 2.6779 2.5213 2.2035 1.9513 2.1940 -1.6207 -1.5708 0.0000 0.0000 0.0000 0.0000 0.0000 3.1416 0.0000 0.0000 0.0000 2.3709 1.5277 -0.8199 -0.3805 0.5281 -0.1244 -0.7551 -0.6823 -0.3709 -0.3081 -3.1360 -3.1332 -3.1387 3.1184 -2.3224 -2.3143 3.1416 3.1416 3.1416 3.1416 2.3696 2.3707 -3.0367 -0.7086 -2.7928 2.9889 -2.9764 -2.8555 -2.9148 -2.7928 -2.2143 -2.1815 -2.1588 -2.1996 -1.7682 -1.7127 -1.7359 -1.7359 -2.2143 -2.2143 -2.4981 -2.3562 -1.8158 -1.6815 -1.6539 -1.5708 -2.2455 -2.0344 -2.2143 -2.2455 -1.8925 -1.9513 -2.6779 -2.3562 -1.8158 -2.0344 -2.3562 0.7854 1.5708 2.6779 -2.3562 -2.1588 -2.2143 -2.6012 -2.8198 -2.3562 -1.4877 -1.7506 -1.7127 -1.9513 -2.8198 3.1416 3.1416 2.3562 1.8158 1.8370 1.9513 3.1416 -0.7854 0.0000 0.7854 2.3562 -2.6779 -2.0344 -1.5708 1.1071 1.1071 3.1416 -2.8966 3.1416 2.8198 2.3562 -2.8198 -1.8925 -2.0344 -1.7682 -1.5708 -0.9828 0.0000 1.7682 2.2455 3.1416 -2.5536 -1.5708 0.7854 -1.5566 -1.5708 0.0000 0.0000 0.0000 0.0000 0.0000 0.0000 0.0000 0.0000 0.0000 0.0000 0.0000 0.0000 0.0000 0.0000 0.0000 0.0000 0.0000 0.0000 0.0000 0.0000 0.0000 0.0000 0.0000 0.0000
0.0000 0.0000 0.0000 0.0000 0.0000 0.0000 0.0000 0.0000 0.0000 0.0000 0.0000 0.0000 0.0000 0.0000 0.0000 3.1416 2.3598 1.5326 -0.8652 -0.7854 -0.7854 -0.5071 -0.3218 -0.4266 -0.1419 -0.1974 -1.5708 2.3562 1.8623 1.8925 2.3349 -1.6238 -1.5708 0.0000 0.0000 0.0000 0.0000 0.0000 0.0000 0.0000 0.0000 0.0000 1.5708 1.5259 -0.8140 -0.4636 0.6107 0.0000 -0.8761 -0.5317 -0.3393 -1.5187 -1.4998 3.1416 3.1416 3.1416 3.1416 0.0000 0.0000 0.0000 0.0000 0.0000 0.0000 3.1416 2.3453 2.3715 -1.0240 -2.4469 -2.8810 3.1416 2.8966 -2.8633 -2.1112 -2.2143 -2.1112 -2.0779 -1.9890 -1.7682 -1.7895 -1.8158 -2.1112 -2.2455 -2.3562 -2.6779 -2.2455 -1.9296 -1.8370 -1.4181 -1.8491 -2.1588 -2.4330 -2.5536 -2.3562 -1.9513 -2.8966 -2.8966 -2.3562 -2.3562 2.0344 0.6435 0.0000 -2.3562 -2.3562 -2.1588 -2.1112 -2.4981 -2.9764 3.1416 -2.1588 -1.9196 -1.8491 -1.8491 3.1416 2.5536 -2.3562 2.3562 1.5708 1.9974 2.4981 2.7828 2.9442 3.1416 3.1416 -2.6779 -2.8198 3.1416 1.5708 1.5708 -2.8966 -2.6779 3.1416 2.5536 2.0344 3.1416 -2.8198 -2.8966 -2.1588 -2.1112 -1.7682 -1.5708 -0.7854 1.5708 2.4981 2.9442 2.8198 2.3562 1.2490 -1.5637 -1.5708 0.0000 0.0000 0.0000 0.0000 0.0000 0.0000 0.0000 0.0000 0.0000 0.0000 0.0000 0.0000 0.0000 0.0000 0.0000 0.0000 0.0000 0.0000 0.0000 0.0000 0.0000 0.0000 0.0000 0.0000
0.0000 0.0000 0.0000 0.0000 0.0000 0.0000 0.0000 0.0000 0.0000 0.0000 0.0000 0.0000 0.0000 0.0000 0.0000 0.0000 1.5708 1.5494 -0.9048 -0.8419 -1.1501 -0.9828 -0.7854 -0.9098 -0.8761 -1.1903 -1.3258 1.1071 1.2925 1.7033 2.2265 -2.3714 -1.5708 0.0000 0.0000 0.0000 0.0000 0.0000 0.0000 0.0000 0.0000 0.0000 1.5708 1.5367 -1.0863 -0.8851 0.3218 -0.4636 -1.1071 -0.6435 -0.4636 0.2915 -0.7790 -0.7804 0.0000 0.0000 0.0000 0.0000 0.0000 0.0000 0.0000 0.0000 0.0000 0.0000 0.0000 2.3634 2.3601 -1.1526 -1.4801 2.9617 2.8198 -2.9442 -2.3562 -2.1815 -2.2896 -2.1588 -2.1294 -1.9138 -1.7359 -1.7506 -1.7682 -1.9513 -1.5708 -1.5708 -2.0899 -2.1294 -2.0899 -1.4601 -1.2490 -1.5708 -2.2896 -2.3562 -2.5536 -1.9513 -2.4981 -2.8966 -2.5536 3.1416 1.7682 1.5708 -2.0344 -1.8158 -2.1112 -2.0344 -1.6952 -1.9656 -2.5749 3.0703 -2.8753 -1.9757 -1.7682 -1.3734 -0.7854 2.3562 1.5708 0.9828 1.1071 2.1588 2.8198 2.6779 2.8198 2.9442 2.7611 2.5536 2.0344 1.5708 0.0000 -2.0344 -2.3562 -2.6779 2.5536 1.9513 1.5708 -2.3562 -1.8158 -2.6779 -2.6779 -2.0344 -1.8925 -1.5708 0.0000 0.0000 3.1416 2.6779 2.0344 2.0344 1.5708 -1.5708 -1.5708 0.0000 0.0000 0.0000 0.0000 0.0000 0.0000 0.0000 0.0000 0.0000 0.0000 0.0000 0.0000 0.0000 0.0000 0.0000 0.0000 0.0000 0.0000 0.0000 0.0000 0.0000 0.0000 0.0000 0.0000
0.0000 0.0000 0.0000 0.0000 0.0000 0.0000 0.0000 0.0000 0.0000 0.0000 0.0000 0.0000 0.0000 0.0000 0.0000 0.0000 1.5708 2.3659 -0.4784 -0.8419 -0.9358 -0.6435 -0.3883 -0.4869 -0.5880 -0.5071 -0.5880 0.4636 1.1659 1.5042 -2.3659 -2.3591 0.0000 0.0000 0.0000 0.0000 0.0000 0.0000 0.0000 0.0000 0.0000 0.0000 0.7691 1.5440 -1.0899 -0.6327 0.2187 -0.3218 -0.8520 -0.7086 -0.4636 0.1651 0.4424 -0.7559 -1.5708 0.0000 0.0000 0.0000 0.0000 0.0000 0.0000 0.0000 0.0000 0.0000 0.0000 0.0000 2.3691 2.3601 -0.8871 -1.7976 2.9442 3.1416 -2.4228 -2.0779 -2.1588 -2.2794 -2.2896 -2.0647 -1.8314 -1.8623 -2.2455 -2.0344 -2.5536 -2.1588 -2.1112 -2.3562 -2.3562 -2.4330 -2.0344 -1.8693 -2.2896 3.1416 -2.3562 -2.4981 -2.6012 3.1416 -2.8966 3.1416 2.5536 2.8198 -3.0309 -2.6779 -2.4981 -2.6779 -2.2896 -1.9296 -2.2565 3.1416 2.9764 -2.9442 -2.1588 -1.3258 -0.7854 0.0000 1.5708 1.5708 1.8925 2.1588 2.6779 2.6012 2.7611 2.8966 2.6779 2.3562 2.0344 2.6779 3.1416 -2.5536 -2.0344 -2.3562 2.0344 1.7682 1.2490 -2.3562 -1.8158 -2.6779 -2.6779 -1.8158 -1.8925 -0.7854 0.0000 0.0000 0.0000 0.4636 0.7854 1.5708 2.0344 -1.5990 -1.5708 0.0000 0.0000 0.0000 0.0000 0.0000 0.0000 0.0000 0.0000 0.0000 0.0000 0.0000 0.0000 0.0000 0.0000 0.0000 0.0000 0.0000 0.0000 0.0000 0.0000 0.0000 0.0000 0.0000 0.0000
0.0000 0.0000 0.0000 0.0000 0.0000 0.0000 0.0000 0.0000 0.0000 0.0000 0.0000 0.0000 0.0000 0.0000 0.0000 0.0000 0.0000 2.3424 2.3370 -3.0932 -3.0685 -0.3059 -0.2216 -0.3683 -0.3081 -0.2311 -0.3588 -0.0555 0.3218 -2.3582 -2.3650 0.0000 0.0000 0.0000 0.0000 0.0000 0.0000 0.0000 0.0000 0.0000 0.0000 1.5708 0.7842 -0.9048 -0.5233 -0.3617 -0.2292 -0.1974 -0.4636 -0.2709 0.3367 0.4939 0.3743 -1.5008 -0.7531 0.0000 0.0000 0.0000 0.0000 0.0000 0.0000 0.0000 0.0000 0.0000 0.0000 0.0000 0.0000 2.3525 2.3804 -1.2925 -2.4228 2.6779 -2.9442 -1.9296 -1.7895 -1.9513 -2.2318 -1.9196 -1.7819 -1.8370 -2.3562 -2.0344 -2.5213 -2.4228 -2.2565 -2.4228 -2.4330 -2.3562 -2.5536 -2.1588 -1.8491 2.9442 -2.1910 -2.4330 3.1416 3.1416 -2.9442 -2.8633 3.1416 3.1416 -3.0792 -2.9442 -2.7986 -2.8753 -2.6012 -2.0344 -1.9196 -2.8198 2.9229 2.7828 2.9764 -2.3562 -0.7854 -0.7854 0.0000 2.0344 2.0344 3.1416 -2.8966 2.8198 2.7828 2.8633 2.6224 2.5213 2.6779 3.1416 -2.8198 -2.6779 -2.3562 -2.6779 1.2490 1.4289 1.2490 -2.1588 -1.9757 -2.3562 2.0344 -1.5708 -0.7854 0.7854 0.5880 0.1974 -0.1974 0.0000 0.0000 -1.5708 3.1416 -1.5994 -1.5708 0.0000 0.0000 0.0000 0.0000 0.0000 0.0000 0.0000 0.0000 0.0000 0.0000 0.0000 0.0000 0.0000 0.0000 0.0000 0.0000 0.0000 0.0000 0.0000 0.0000 0.0000 0.0000 0.0000 0.0000
0.0000 0.0000 0.0000 0.0000 0.0000 0.0000 0.0000 0.0000 0.0000 0.0000 0.0000 0.0000 0.0000 0.0000 0.0000 0.0000 0.0000 0.0000 3.1416 3.1416 2.3259 2.3190 -0.2493 -0.3883 -0.3781 -3.0930 -3.1022 -3.1218 -2.3435 -2.3503 0.0000 0.0000 0.0000 0.0000 0.0000 0.0000 0.0000 0.0000 0.0000 0.0000 0.0000 1.5708 1.6031 1.1071 0.2111 -0.3081 -0.6202 -0.9098 -0.9601 0.0000 0.3218 0.9420 0.9273 1.2120 -0.7637 -1.5708 0.0000 0.0000 0.0000 0.0000 0.0000 0.0000 0.0000 0.0000 0.0000 0.0000 0.0000 0.0000 2.3928 2.3751 -1.6296 2.1588 3.1416 -1.7359 -1.6705 -1.7359 -1.9296 -1.5708 -1.6421 -1.6615 -1.8158 -1.7127 -2.0344 -2.0344 -2.0344 -2.0344 -2.2455 -1.8158 -2.0344 -2.1588 -1.1903 -2.1588 -1.8925 -1.7682 3.1416 -2.3562 -2.0344 -2.3562 -2.6779 -2.5536 -2.7828 -2.9889 -2.9617 3.1416 -2.6224 -2.1112 -1.6705 -2.1112 3.1416 2.9617 2.7928 2.7367 3.1416 -2.8966 3.1416 2.0344 1.5708 0.0000 -1.1071 -1.5708 2.9442 2.7611 2.7611 2.6779 2.5213 2.6779 3.1416 -2.3562 -2.0344 0.7854 1.1903 0.7854 3.1416 -1.7682 -1.9513 0.0000 0.5880 -0.4636 -0.1974 0.3218 0.9828 1.1071 0.0000 -0.3218 -1.2490 -1.5708 0.0000 -1.5708 -1.5708 0.0000 0.0000 0.0000 0.0000 0.0000 0.0000 0.0000 0.0000 0.0000 0.0000 0.0000 0.0000 0.0000 0.0000 0.0000 0.0000 0.0000 0.0000 0.0000 0.0000 0.0000 0.0000 0.0000 0.0000
0.0000 0.0000 0.0000 0.0000 0.0000 0.0000 0.0000 0.0000 0.0000 0.0000 0.0000 0.0000 0.0000 0.0000 0.0000 0.0000 0.0000 0.0000 0.0000 0.0000 0.0000 2.3152 2.3312 -3.0381 -2.2996 -2.3127 3.1416 3.1416 3.1416 0.0000 0.0000 0.0000 0.0000 0.0000 0.0000 0.0000 0.0000 0.0000 0.0000 0.0000 0.0000 1.5708 2.3539 2.1910 2.0344 -0.7854 -0.7532 -0.8442 -0.6557 0.0000 0.5880 0.9420 1.1760 1.3258 -1.5708 -1.5708 0.0000 0.0000 0.0000 0.0000 0.0000 0.0000 0.0000 0.0000 0.0000 0.0000 0.0000 0.0000 0.0000 2.3914 1.5622 1.5708 3.1416 -1.7359 -1.9513 -1.8925 -1.9757 -1.7895 -1.7033 -1.7506 -2.0344 -1.8491 -1.8158 -1.9296 -1.7682 -1.8925 -1.9513 -1.6952 -1.9296 -2.1588 -1.5708 -1.5708 -1.7359 -1.3734 3.1416 -2.6779 -2.0344 -2.3562 -2.6779 -2.6224 -2.0344 -2.2655 3.1416 2.9442 -2.6224 -2.2143 -2.0344 -1.9296 -2.3562 -3.0509 2.7468 2.6422 2.8198 2.9764 2.1588 1.8158 1.5708 0.4636 -0.5880 -0.9273 -2.3562 2.6779 -2.8966 2.4981 2.0344 2.2143 2.8198 3.1416 1.5708 0.7854 1.5708 1.1071 -1.2490 -1.1071 -0.5880 0.3805 0.5880 -0.1651 -0.2783 -0.2450 0.0000 2.8198 2.6779 -2.6779 -2.1588 -2.3562 0.0000 -1.5637 -1.5708 0.0000 0.0000 0.0000 0.0000 0.0000 0.0000 0.0000 0.0000 0.0000 0.0000 0.0000 0.0000 0.0000 0.0000 0.0000 0.0000 0.0000 0.0000 0.0000 0.0000 0.0000 0.0000 0.0000 0.0000
0.0000 0.0000 0.0000 0.0000 0.0000 0.0000 0.0000 0.0000 0.0000 0.0000 0.0000 0.0000 0.0000 0.0000 0.0000 0.0000 0.0000 0.0000 0.0000 0.0000 0.0000 0.0000 3.1416 3.1416 3.1416 0.0000 0.0000 0.0000 0.0000 0.0000 0.0000 0.0000 0.0000 0.0000 0.0000 0.0000 0.0000 0.0000 0.0000 0.0000 0.0000 0.0000 2.3550 2.3539 3.0958 3.1164 -3.1276 -3.0919 -3.0955 -0.4124 0.3672 0.7854 0.9601 1.2649 -1.5777 -1.5708 0.0000 0.0000 0.0000 0.0000 0.0000 0.0000 0.0000 0.0000 0.0000 0.0000 0.0000 0.0000 0.0000 1.5708 2.3562 0.0000 -0.7854 -1.5708 -1.9380 -2.0701 -2.2655 -2.2896 -1.9138 -1.7506 -1.8158 -2.0899 -1.8925 -2.0344 -1.7895 -2.0344 -2.2143 -1.6815 -1.7506 -2.3562 -2.9997 -2.7611 -2.6779 -2.1588 -2.3562 -2.6779 -2.1588 -2.3562 -2.5213 -2.7234 -2.9997 -2.1588 -2.3562 -2.7611 -2.5830 -2.2794 -2.1910 -2.0899 -1.9296 -2.3562 2.4669 2.1588 2.1112 2.1588 1.3734 0.9273 1.1903 1.2490 -0.4636 -1.4056 -1.5708 3.1416 2.3562 1.3734 1.8925 2.4981 2.3562 2.3562 2.3562 0.7854 1.1903 1.7359 0.0000 -0.7854 -0.4636 0.0000 1.2490 0.7854 -0.6435 -1.1071 -1.5708 -2.6779 2.8966 -2.8966 -2.6779 3.1416 2.0344 -1.5708 -1.5708 0.0000 0.0000 0.0000 0.0000 0.0000 0.0000 0.0000 0.0000 0.0000 0.0000 0.0000 0.0000 0.0000 0.0000 0.0000 0.0000 0.0000 0.0000 0.0000 0.0000 0.0000 0.0000 0.0000 0.0000
0.0000 0.0000 0.0000 0.0000 0.0000 0.0000 0.0000 0.0000 0.0000 0.0000 0.0000 0.0000 0.0000 0.0000 0.0000 0.0000 0.0000 0.0000 0.0000 0.0000 0.0000 0.0000 0.0000 0.0000 0.0000 0.0000 0.0000 0.0000 0.0000 0.0000 0.0000 0.0000 0.0000 0.0000 0.0000 0.0000 0.0000 0.0000 0.0000 0.0000 0.0000 0.0000 0.0000 3.1416 3.1416 3.1416 3.1416 3.1416 2.3527 2.3491 -0.2783 3.1298 3.1229 3.1093 -2.3710 -1.5708 0.0000 0.0000 0.0000 0.0000 0.0000 0.0000 0.0000 0.0000 0.0000 0.0000 0.0000 0.0000 0.0000 0.0000 1.5327 1.5370 -0.7854 -1.4056 -1.5084 -1.5708 -1.9296 -1.9890 -1.7682 -1.2925 -1.1071 -1.7895 -1.6952 -1.7127 -1.6815 -2.0899 -2.1588 -1.9757 -1.6705 -1.5708 -2.0989 -2.6012 3.1416 2.7611 2.0344 -1.5708 -1.8158 -1.8491 -2.1112 -2.0344 -2.8198 -2.6779 -1.8925 -2.1112 -2.2455 -2.1112 -1.8925 -1.8925 -1.7359 -1.5708 1.5708 1.6952 1.8925 1.5708 1.4464 1.0304 0.7854 1.5708 -1.5708 -1.7359 -1.5708 0.0000 1.5708 1.5708 2.1588 2.2143 1.8158 2.3562 1.8158 1.1903 0.9828 1.5708 0.4636 -1.3258 -1.2490 -1.5708 1.5708 2.0344 -1.5708 -1.5708 -1.8925 -2.4981 2.9442 -2.8198 -2.5536 2.6779 2.1588 -1.5779 -1.5708 0.0000 0.0000 0.0000 0.0000 0.0000 0.0000 0.0000 0.0000 0.0000 0.0000 0.0000 0.0000 0.0000 0.0000 0.0000 0.0000 0.0000 0.0000 0.0000 0.0000 0.0000 0.0000 0.0000 0.0000
0.0000 0.0000 0.0000 0.0000 0.0000 0.0000 0.0000 0.0000 0.0000 0.0000 0.0000 0.0000 0.0000 0.0000 0.0000 0.0000 0.0000 0.0000 0.0000 0.0000 0.0000 0.0000 0.0000 0.0000 0.0000 0.0000 0.0000 0.0000 0.0000 0.0000 0.0000 0.0000 0.0000 0.0000 0.0000 0.0000 0.0000 0.0000 0.0000 0.0000 0.0000 0.0000 0.0000 0.0000 0.0000 0.0000 0.0000 0.0000 0.0000 2.3597 3.1416 -1.6084 3.1416 3.1416 3.1416 0.0000 0.0000 0.0000 0.0000 0.0000 0.0000 0.0000 0.0000 0.0000 0.0000 0.0000 0.0000 0.0000 0.0000 0.7404 0.7591 -0.4049 -1.1659 -1.3909 -1.1342 -1.1342 -1.3734 -1.1659 -1.4464 -1.2490 -1.3258 -1.5708 -1.6952 -1.6952 -1.8158 -2.5749 -2.8501 -2.4150 -2.2896 -2.2318 -1.9974 -2.1588 3.1416 2.3562 1.5708 -2.3562 -1.9296 -2.1910 -2.3562 -2.3562 -2.8966 -2.8966 -2.6012 -2.4469 -2.3562 -2.1112 -1.7359 -2.0344 -1.5708 -0.9828 0.9828 1.4289 1.5708 1.2490 1.5708 1.7682 2.0344 2.3562 -2.3562 -1.8925 -1.7682 0.0000 2.0344 2.4981 2.6012 2.3562 2.3562 2.6779 1.8158 1.3734 0.7854 1.7359 2.3562 -1.3258 -0.9828 -0.3218 1.5708 2.0344 -1.5708 -1.4056 -1.3258 -1.7682 2.5536 2.6779 -1.8925 2.6779 2.1112 -1.5852 -1.5708 0.0000 0.0000 0.0000 0.0000 0.0000 0.0000 0.0000 0.0000 0.0000 0.0000 0.0000 0.0000 0.0000 0.0000 0.0000 0.0000 0.0000 0.0000 0.0000 0.0000 0.0000 0.0000 0.0000 0.0000
0.0000 0.0000 0.0000 0.0000 0.0000 0.0000 0.0000 0.0000 0.0000 0.0000 0.0000 0.0000 0.0000 0.0000 0.0000 0.0000 0.0000 0.0000 0.0000 0.0000 0.0000 0.0000 0.0000 0.0000 0.0000 0.0000 0.0000 0.0000 0.0000 0.0000 0.0000 0.0000 0.0000 0.0000 0.0000 0.0000 0.0000 0.0000 0.0000 0.0000 0.0000 0.0000 0.0000 0.0000 0.0000 0.0000 0.0000 0.0000 0.0000 0.0000 1.6147 0.8053 0.0127 -0.8027 -0.7964 0.0000 0.0000 0.0000 0.0000 0.0000 0.0000 0.0000 0.0000 0.0000 0.0000 0.7724 0.7581 -0.0888 -0.0624 -0.0900 -0.7045 -0.6889 -1.2490 -1.2120 -1.0041 -1.2315 -1.3258 -1.2793 -1.6615 -2.1588 -2.2143 -1.9656 -1.9890 -1.9890 -1.8281 -2.2368 -3.0585 -2.8431 -2.4150 -2.4088 -2.3562 -2.6779 2.8966 2.5213 2.8198 -2.6345 -2.1375 -2.3562 -2.7234 -2.8198 -3.0309 -2.9442 -2.7468 -2.7744 -2.9229 -2.9997 -2.3562 -2.3562 -0.7854 -0.1974 0.3805 1.1071 1.1659 1.0304 1.3734 2.2143 2.6779 3.1416 -2.4981 -2.2455 -1.8925 3.1416 -2.3562 -2.9764 2.8198 2.5213 2.4330 2.2143 1.8491 1.8925 0.7854 1.1071 1.8925 -0.7854 -0.3218 -0.6435 -1.1071 1.5708 0.0000 -1.2490 -1.2120 -1.3258 0.0000 2.3562 -1.1071 0.0000 2.1588 -1.5925 -1.5708 0.0000 0.0000 0.0000 0.0000 0.0000 0.0000 0.0000 0.0000 0.0000 0.0000 0.0000 0.0000 0.0000 0.0000 0.0000 0.0000 0.0000 0.0000 0.0000 0.0000 0.0000 0.0000 0.0000 0.0000
0.0000 0.0000 0.0000 0.0000 0.0000 0.0000 0.0000 0.0000 0.0000 0.0000 0.0000 0.0000 0.0000 0.0000 0.0000 0.0000 0.0000 0.0000 0.0000 0.0000 0.0000 0.0000 0.0000 0.0000 0.0000 0.0000 0.0000 0.0000 0.0000 0.0000 0.0000 0.0000 0.0000 0.0000 0.0000 0.0000 0.0000 0.0000 0.0000 0.0000 0.0000 0.0000 0.0000 0.0000 0.0000 0.0000 0.0000 0.0000 0.0000 1.5708 0.7704 -2.4669 3.0172 2.5930 -0.7742 -1.5708 0.0000 0.0000 0.0000 0.0000 0.0000 0.0000 0.0000 0.7623 0.7790 -0.0511 -1.7590 -1.0769 -1.0304 -1.1760 -1.0863 -1.2068 -1.2925 -1.0637 -1.3258 -1.2649 -1.3440 -1.3909 -1.4382 -1.8370 -2.1588 -2.4088 -2.5309 -2.2974 -1.8767 -1.7127 -2.2455 -2.6779 -2.5830 -2.2318 -2.3562 -2.5830 3.0309 2.7234 3.1416 -2.9148 -2.4150 -2.2974 -2.5830 -2.7234 -2.9229 -2.7611 -2.7092 -2.9889 3.0509 -2.9442 -2.7611 2.8198 0.9273 0.1974 0.2450 1.0304 1.2490 1.3258 1.5708 3.1416 2.8966 2.9442 -2.7611 -2.3562 -2.3562 -2.8198 -2.7367 -2.4669 2.7611 2.2655 2.1294 2.0344 2.0344 2.0344 1.8491 1.1071 1.5708 0.0000 0.0000 -1.2490 -1.1071 1.1071 -0.7854 -1.5708 -1.5708 -1.4464 -1.5708 1.5708 -1.1071 -1.5708 2.0344 -1.5781 -1.5708 0.0000 0.0000 0.0000 0.0000 0.0000 0.0000 0.0000 0.0000 0.0000 0.0000 0.0000 0.0000 0.0000 0.0000 0.0000 0.0000 0.0000 0.0000 0.0000 0.0000 0.0000 0.0000 0.0000 0.0000
0.0000 0.0000 0.0000 0.0000 0.0000 0.0000 0.0000 0.0000 0.0000 0.0000 0.0000 0.0000 0.0000 0.0000 0.0000 0.0000 0.0000 0.0000 0.0000 0.0000 0.0000 0.0000 0.0000 0.0000 0.0000 0.0000 0.0000 0.0000 0.0000 0.0000 0.0000 0.0000 0.0000 0.0000 0.0000 0.0000 0.0000 0.0000 0.0000 0.0000 0.0000 0.0000 0.0000 0.0000 0.0000 0.0000 0.0000 0.0000 0.0000 0.7769 1.5759 -2.0989 2.9997 2.5088 -2.3674 -1.5708 0.0000 0.0000 0.0000 0.0000 0.0000 0.0000 0.7750 0.7699 -1.6757 -1.5708 -1.2490 -0.9653 -1.0304 -1.0744 -0.9358 -1.1526 -1.1071 -1.1442 -1.0304 -0.9179 -0.7854 -0.5248 -0.6747 -0.6889 -0.7854 -1.5084 -2.4228 -2.7150 -2.1763 -1.7359 -1.7895 -2.0344 -2.5830 -2.0344 -2.1815 -2.5536 2.9442 3.1416 -2.9764 3.1416 -2.6779 -2.4150 -2.5830 -2.7234 -2.9229 -2.5536 -2.4669 -2.8198 3.0509 3.1416 2.9764 1.5708 1.4289 0.0000 0.0000 1.5708 1.9513 2.1588 2.8966 3.1416 3.1416 -2.8966 -2.9997 -2.7611 -2.6012 -2.4469 -2.7928 3.0509 2.6779 2.5830 2.0344 1.9757 2.1588 1.6815 2.0899 2.4669 2.8198 0.0000 3.1416 -1.8925 -1.1071 1.1071 -1.5708 -1.8158 -1.7127 -1.3258 -0.4636 1.5708 -2.3562 -1.5708 1.5708 -2.3598 -1.5708 0.0000 0.0000 0.0000 0.0000 0.0000 0.0000 0.0000 0.0000 0.0000 0.0000 0.0000 0.0000 0.0000 0.0000 0.0000 0.0000 0.0000 0.0000 0.0000 0.0000 0.0000 0.0000 0.0000 0.0000
0.0000 0.0000 0.0000 0.0000 0.0000 0.0000 0.0000 0.0000 0.0000 0.0000 0.0000 0.0000 0.0000 0.0000 0.0000 0.0000 0.0000 0.0000 0.0000 0.0000 0.0000 0.0000 0.0000 0.0000 0.0000 0.0000 0.0000 0.0000 0.0000 0.0000 0.0000 0.0000 0.0000 0.0000 0.0000 0.0000 0.0000 0.0000 0.0000 0.0000 0.0000 0.0000 0.0000 0.0000 0.0000 0.0000 0.0000 0.0000 1.5708 0.7744 -1.6476 -2.0344 -2.8198 -1.6259 -1.6440 0.0000 0.0000 0.0000 0.0000 0.0000 0.7769 0.7766 -0.0684 -1.7359 -1.4289 -1.1659 -0.9828 -0.8330 -0.8330 -1.0460 -1.0122 -1.1384 -1.1410 -0.9273 -0.2783 -0.3332 -3.1095 -3.1089 -3.0596 -3.0609 -3.0127 -2.9684 -1.1723 -1.7682 -2.2455 -2.4228 -2.2794 -1.6615 -2.4330 -2.2143 -1.9513 -2.4981 -2.6779 -2.8198 -2.8966 -2.8198 -2.6422 -2.6345 -2.6345 -2.6779 -2.9442 -2.6345 -2.3562 -2.6012 -2.9764 2.6779 1.5708 1.5708 2.3562 3.1416 3.1416 2.6012 2.5536 2.8198 3.1416 3.1416 2.9997 -2.8633 -2.7828 -3.0172 -2.6779 -2.3562 -2.1294 2.9442 2.5213 2.4150 1.9380 2.1588 2.2655 1.9296 2.7367 2.5213 2.2655 2.3562 -2.8198 -2.8198 3.1416 2.8198 -2.1588 -1.3734 -1.3258 -1.3734 -0.9828 -2.3562 -2.6779 3.1416 -1.5561 -2.3598 0.0000 0.0000 0.0000 0.0000 0.0000 0.0000 0.0000 0.0000 0.0000 0.0000 0.0000 0.0000 0.0000 0.0000 0.0000 0.0000 0.0000 0.0000 0.0000 0.0000 0.0000 0.0000 0.0000 0.0000 0.0000
0.0000 0.0000 0.0000 0.0000 0.0000 0.0000 0.0000 0.0000 0.0000 0.0000 0.0000 0.0000 0.0000 0.0000 0.0000 0.0000 0.0000 0.0000 0.0000 0.0000 0.0000 0.0000 0.0000 0.0000 0.0000 0.0000 0.0000 0.0000 0.0000 0.0000 0.0000 0.0000 0.0000 0.0000 0.0000 0.0000 0.0000 0.0000 0.0000 0.0000 0.0000 0.0000 0.0000 0.0000 0.0000 0.0000 0.0000 0.0000 1.5708 1.5535 -1.4425 -1.7127 -2.1910 3.0309 -0.7881 -1.5708 0.0000 0.0000 0.0000 1.5708 0.7697 -1.8158 -1.7455 -1.5120 -1.2490 -1.2793 -1.4995 -1.4801 -1.4995 -1.6757 -1.5153 -1.3909 -1.3371 -0.8520 0.6610 -2.3336 -2.3049 3.1416 3.1416 3.1416 3.1416 2.3669 1.5191 -1.3826 -1.6757 -2.0344 -2.7611 -1.5708 -1.8623 -2.0899 -1.8158 -2.0344 -2.2143 -2.3562 -2.6779 -2.4981 -2.1588 -2.1588 -2.2655 -2.3562 -2.9442 -2.6779 -2.0344 -2.1588 3.1416 1.7359 1.4289 1.8925 2.6779 3.1416 3.1416 2.4981 2.3562 2.6779 -3.0309 3.1416 2.9997 -2.9442 -2.8966 3.1416 -2.7611 -2.2143 -0.7854 -0.2450 -2.8198 1.9757 1.7234 2.2794 1.7127 2.0899 2.6012 2.1588 2.1588 2.6779 -2.9442 -2.8633 -2.9442 2.9617 2.7367 -0.7854 -1.2925 -1.9757 -1.5708 -2.0344 -2.6779 1.8158 -1.5486 -1.5708 0.0000 0.0000 0.0000 0.0000 0.0000 0.0000 0.0000 0.0000 0.0000 0.0000 0.0000 0.0000 0.0000 0.0000 0.0000 0.0000 0.0000 0.0000 0.0000 0.0000 0.0000 0.0000 0.0000 0.0000 0.0000
0.0000 0.0000 0.0000 0.0000 0.0000 0.0000 0.0000 0.0000 0.0000 0.0000 0.0000 0.0000 0.0000 0.0000 0.0000 0.0000 0.0000 0.0000 0.0000 0.0000 0.0000 0.0000 0.0000 0.0000 0.0000 0.0000 0.0000 0.0000 0.0000 0.0000 0.0000 0.0000 0.0000 0.0000 0.0000 0.0000 0.0000 0.0000 0.0000 0.0000 0.0000 0.0000 0.0000 0.0000 0.0000 0.0000 0.0000 0.0000 1.5708 1.5415 -1.2818 -1.1955 -1.3045 -0.7854 -1.5869 -0.7841 0.0000 0.0000 0.0000 0.7743 1.5766 -1.6705 -1.5120 -1.5120 -1.5708 -1.5708 -1.5708 -1.5708 -1.5708 -1.5182 -1.3521 -1.2220 -0.9828 -3.1095 -2.3562 -2.3701 0.0000 0.0000 0.0000 0.0000 0.0000 1.5708 2.3868 -3.0214 -1.4659 -1.7682 -2.6779 -1.9890 -1.7682 -2.0899 -2.1294 -2.4669 -2.4669 -2.3562 -2.7611 -2.6012 -2.0344 -2.3562 -2.4330 -2.3562 -2.9442 -2.7611 -2.2143 -1.8925 3.1416 1.5708 1.8491 2.3562 2.9229 3.1416 3.1416 2.7367 2.6779 -2.8501 -2.7611 2.8966 -2.9997 -2.8198 3.1416 2.7611 2.9764 3.1416 -0.4636 -1.3258 -2.3562 1.7895 1.8623 2.0899 1.5708 2.0344 2.4981 2.1588 2.2655 2.9764 -2.6224 -2.6012 -2.8633 2.8431 2.4088 2.5536 -2.1294 -1.8491 -2.0344 -1.8158 -2.3562 1.9513 -1.5634 -0.7783 0.0000 0.0000 0.0000 0.0000 0.0000 0.0000 0.0000 0.0000 0.0000 0.0000 0.0000 0.0000 0.0000 0.0000 0.0000 0.0000 0.0000 0.0000 0.0000 0.0000 0.0000 0.0000 0.0000 0.0000 0.0000
0.0000 0.0000 0.0000 0.0000 0.0000 0.0000 0.0000 0.0000 0.0000 0.0000 0.0000 0.0000 0.0000 0.0000 0.0000 0.0000 0.0000 0.0000 0.0000 0.0000 0.0000 0.0000 0.0000 0.0000 0.0000 0.0000 0.0000 0.0000 0.0000 0.0000 0.0000 0.0000 0.0000 0.0000 0.0000 0.0000 0.0000 0.0000 0.0000 0.0000 0.0000 0.0000 0.0000 0.0000 0.0000 0.0000 0.0000 0.0000 1.5708 1.5468 -1.1342 -1.0427 -1.0222 -0.6747 -1.2490 0.0080 -0.7867 -0.7921 0.7854 0.7756 -1.8045 -1.6879 -1.4289 -1.4601 -1.3440 -1.2793 -1.2925 -1.4801 -1.2723 -1.0808 -0.6327 -0.4809 -2.3169 -2.3139 3.1416 0.0000 0.0000 0.0000 0.0000 0.0000 0.0000 0.0000 3.1416 2.3797 1.5316 -1.7561 -2.4669 -2.6477 -2.2455 -2.2455 -2.2974 -2.7234 -2.8198 -2.7234 -2.8753 -3.0509 -2.5309 -2.4859 -2.7986 -2.8753 -3.0419 3.1416 3.1416 -3.0419 3.0172 2.5830 2.7928 -2.8431 -2.8633 2.9889 2.9889 3.0090 3.0750 3.1416 3.0309 2.8198 3.1416 -2.8198 2.7611 2.8966 3.1416 2.5536 2.6779 -1.5708 -2.0344 2.0344 1.9974 1.7682 1.9890 2.4981 2.8198 2.3562 2.5536 3.1416 -2.5830 -2.3562 -2.6779 2.4981 2.3036 2.7611 -2.7828 -1.5708 -2.1588 -2.3562 -2.6779 2.1588 1.6815 -1.5708 -1.5708 0.0000 0.0000 0.0000 0.0000 0.0000 0.0000 0.0000 0.0000 0.0000 0.0000 0.0000 0.0000 0.0000 0.0000 0.0000 0.0000 0.0000 0.0000 0.0000 0.0000 0.0000 0.0000 0.0000 0.0000
0.0000 0.0000 0.0000 0.0000 0.0000 0.0000 0.0000 0.0000 0.0000 0.0000 0.0000 0.0000 0.0000 0.0000 0.0000 0.0000 0.0000 0.0000 0.0000 0.0000 0.0000 0.0000 0.0000 0.0000 0.0000 0.0000 0.0000 0.0000 0.0000 0.0000 0.0000 0.0000 0.0000 0.0000 0.0000 0.0000 0.0000 0.0000 0.0000 0.0000 0.0000 0.0000 0.0000 0.0000 0.0000 0.0000 0.0000 0.0000 1.5708 1.5519 -1.1706 -1.0637 -0.8086 -0.5880 -0.4900 -0.2450 -0.8961 -0.0270 -0.0244 -1.7234 -1.5708 -1.5708 -1.3440 -1.2679 -0.8330 -0.7328 -0.9685 -0.7854 -0.4124 -0.3488 -0.0907 -2.3282 -2.3172 0.0000 0.0000 0.0000 0.0000 0.0000 0.0000 0.0000 0.0000 0.0000 0.0000 1.5708 2.4002 -1.5232 -1.7359 -2.5269 -2.8198 -2.6135 -2.1588 -2.5213 -2.5536 -2.4330 -2.7234 -2.9442 -2.5128 -2.4469 -2.7928 -3.0585 3.1416 -2.7150 -2.7611 2.9229 2.8633 2.7828 2.9229 3.1416 2.7611 2.8966 -2.8198 3.0172 2.7367 2.6779 2.4981 2.6779 2.7611 2.6779 2.3562 3.1416 -2.8198 2.3562 2.2455 -1.5708 -1.7682 1.7359 1.6615 1.6952 2.0344 2.2455 2.0344 2.3562 2.3562 -2.8966 -2.2455 -2.0344 -2.3562 1.9513 2.0899 2.3562 2.5536 -1.5708 -1.7359 -2.0344 -2.8198 1.8158 -1.5784 -2.3669 0.0000 0.0000 0.0000 0.0000 0.0000 0.0000 0.0000 0.0000 0.0000 0.0000 0.0000 0.0000 0.0000 0.0000 0.0000 0.0000 0.0000 0.0000 0.0000 0.0000 0.0000 0.0000 0.0000 0.0000 0.0000
0.0000 0.0000 0.0000 0.0000 0.0000 0.0000 0.0000 0.0000 0.0000 0.0000 0.0000 0.0000 0.0000 0.0000 0.0000 0.0000 0.0000 0.0000 0.0000 0.0000 0.0000 0.0000 0.0000 0.0000 0.0000 0.0000 0.0000 0.0000 0.0000 0.0000 0.0000 0.0000 0.0000 0.0000 0.0000 0.0000 0.0000 0.0000 0.0000 0.0000 0.0000 0.0000 0.0000 0.0000 0.0000 0.0000 0.0000 0.0000 1.5708 1.5638 -1.1999 -0.9653 -0.6747 -0.5105 -0.6805 -0.5191 -0.5517 -0.7854 -0.7854 -1.1903 -1.1284 -1.1071 -0.7328 -0.7854 -0.4900 -0.5404 -0.6823 -0.2187 -0.0689 0.0487 -2.3281 -2.3184 0.0000 0.0000 0.0000 0.0000 0.0000 0.0000 0.0000 0.0000 0.0000 0.0000 0.0000 0.0000 2.4056 1.5303 -1.5254 -1.9937 -2.8387 -3.0703 -2.6779 -2.6224 -2.6779 -1.9757 -2.1588 -2.6779 -2.2318 -2.1815 -2.5830 -2.8198 3.1416 3.0419 2.7611 2.7611 2.7611 2.4981 2.7611 3.1416 2.8198 2.9997 -2.8633 2.9764 2.6012 2.6779 2.6779 2.5536 2.6779 2.6779 2.3562 3.1416 -1.5708 1.2490 1.7682 -2.0344 -1.5708 1.2490 1.3909 1.8158 2.2655 2.3562 2.5536 1.8925 2.3562 -2.8966 -1.9513 -1.6952 -0.7854 1.1903 1.4289 1.5708 2.0344 -1.5708 -1.5708 -1.7359 -2.3562 1.5708 -1.6013 -1.5708 0.0000 0.0000 0.0000 0.0000 0.0000 0.0000 0.0000 0.0000 0.0000 0.0000 0.0000 0.0000 0.0000 0.0000 0.0000 0.0000 0.0000 0.0000 0.0000 0.0000 0.0000 0.0000 0.0000 0.0000 0.0000
0.0000 0.0000 0.0000 0.0000 0.0000 0.0000 0.0000 0.0000 0.0000 0.0000 0.0000 0.0000 0.0000 0.0000 0.0000 0.0000 0.0000 0.0000 0.0000 0.0000 0.0000 0.0000 0.0000 0.0000 0.0000 0.0000 0.0000 0.0000 0.0000 0.0000 0.0000 0.0000 0.0000 0.0000 0.0000 0.0000 0.0000 0.0000 0.0000 0.0000 0.0000 0.0000 0.0000 0.0000 0.0000 0.0000 0.0000 0.0000 1.5708 1.5778 -1.2220 -1.0222 -0.7854 -0.7551 -0.8709 -0.4424 -0.5124 -0.6610 -0.8254 -0.7141 -0.8157 -0.5880 -0.4636 -0.5743 -0.3709 -0.3805 -0.1722 0.0512 0.1651 -2.3250 -2.3240 0.0000 0.0000 0.0000 0.0000 0.0000 0.0000 0.0000 0.0000 0.0000 0.0000 0.0000 0.0000 0.0000 1.5708 2.3694 -1.3877 -1.6739 -2.4038 3.0703 -2.9764 -2.7828 3.1416 -2.3562 -1.9757 -2.1112 -2.0779 -1.9196 -2.2655 -2.6779 -2.9764 3.1416 2.9997 2.8966 2.8198 2.7828 3.0309 -3.0309 3.1416 3.1416 -3.0585 2.8501 2.8198 2.9229 2.6012 2.6224 2.7367 2.6779 2.8966 2.7611 1.5708 1.5708 2.1588 -2.8198 -1.5708 1.4464 1.7127 2.9997 2.8501 2.5749 2.5536 2.7367 3.1416 3.1416 -2.8633 -1.5708 0.0000 0.5404 1.0304 1.2490 1.5708 3.1416 -1.9757 -1.8491 3.1416 1.5708 -2.3858 -1.5708 0.0000 0.0000 0.0000 0.0000 0.0000 0.0000 0.0000 0.0000 0.0000 0.0000 0.0000 0.0000 0.0000 0.0000 0.0000 0.0000 0.0000 0.0000 0.0000 0.0000 0.0000 0.0000 0.0000 0.0000 0.0000
0.0000 0.0000 0.0000 0.0000 0.0000 0.0000 0.0000 0.0000 0.0000 0.0000 0.0000 0.0000 0.0000 0.0000 0.0000 0.0000 0.0000 0.0000 0.0000 0.0000 0.0000 0.0000 0.0000 0.0000 0.0000 0.0000 0.0000 0.0000 0.0000 0.0000 0.0000 0.0000 0.0000 0.0000 0.0000 0.0000 0.0000 0.0000 0.0000 0.0000 0.0000 0.0000 0.0000 0.0000 0.0000 0.0000 0.0000 0.0000 1.5708 1.5778 -1.3258 -1.3102 -1.2925 -1.2036 -1.1342 -0.7266 -0.8442 -0.9995 -0.9828 -0.8330 -1.0122 -0.8288 -0.7854 -0.8330 -0.4636 -0.3218 0.4049 0.6001 -2.3254 -2.3288 0.0000 0.0000 0.0000 0.0000 0.0000 0.0000 0.0000 0.0000 0.0000 0.0000 0.0000 0.0000 0.0000 0.0000 0.0000 2.3723 2.4314 -1.7359 -2.0832 -2.9889 2.9997 3.1416 3.0419 -2.9229 -2.4469 -2.2455 -2.1112 -2.0344 -2.0899 -2.4669 3.1416 3.1416 3.1416 3.1416 2.8198 2.7367 2.9764 3.1416 -2.9764 -2.8966 3.1416 2.5536 2.6779 2.8633 2.4469 2.5830 2.7367 2.6224 2.6779 2.5536 2.3562 2.9442 2.6779 3.1416 -2.3562 1.9513 2.7367 -3.0172 2.9229 2.6012 2.6012 2.9889 2.9764 2.9229 2.8198 1.7682 0.7854 0.5880 0.9828 1.1071 -1.5708 -2.0344 -2.0344 -1.7682 2.3562 -1.5708 -2.3712 0.0000 0.0000 0.0000 0.0000 0.0000 0.0000 0.0000 0.0000 0.0000 0.0000 0.0000 0.0000 0.0000 0.0000 0.0000 0.0000 0.0000 0.0000 0.0000 0.0000 0.0000 0.0000 0.0000 0.0000 0.0000 0.0000
0.0000 0.0000 0.0000 0.0000 0.0000 0.0000 0.0000 0.0000 0.0000 0.0000 0.0000 0.0000 0.0000 0.0000 0.0000 0.0000 0.0000 0.0000 0.0000 0.0000 0.0000 0.0000 0.0000 0.0000 0.0000 0.0000 0.0000 0.0000 0.0000 0.0000 0.0000 0.0000 0.0000 0.0000 0.0000 0.0000 0.0000 0.0000 0.0000 0.0000 0.0000 0.0000 0.0000 0.0000 0.0000 0.0000 0.0000 0.0000 1.5708 2.3562 -2.0344 -1.3734 -1.2925 -1.3440 -1.3102 -0.8520 -0.9098 -1.1071 -1.0427 -1.0041 -1.0584 -0.9828 -0.8961 -0.8330 -0.3672 -0.2606 0.1419 -2.3691 -2.3661 0.0000 0.0000 0.0000 0.0000 0.0000 0.0000 0.0000 0.0000 0.0000 0.0000 0.0000 0.0000 0.0000 0.0000 0.0000 0.0000 0.0000 2.4566 1.5976 -2.1025 -2.7928 3.0585 3.0509 3.0509 3.1416 -2.9617 -2.6345 -2.4469 -2.2974 -2.4330 -2.4981 3.1416 3.1416 -2.8966 3.1416 2.6779 2.4981 2.5536 -2.8966 -2.7611 -2.9442 2.8966 2.6779 2.7611 2.5536 2.3562 2.7367 2.5536 2.4669 2.8198 2.6224 2.7234 2.8966 2.8966 2.9229 2.7611 2.7611 2.9997 -2.9997 2.9764 2.4981 2.7828 3.0509 2.7611 2.8198 2.4330 2.0344 2.0344 1.8925 1.8925 1.5708 -2.3562 -1.8925 -1.7359 -1.7682 0.7854 -1.5553 -1.5708 0.0000 0.0000 0.0000 0.0000 0.0000 0.0000 0.0000 0.0000 0.0000 0.0000 0.0000 0.0000 0.0000 0.0000 0.0000 0.0000 0.0000 0.0000 0.0000 0.0000 0.0000 0.0000 0.0000 0.0000 0.0000 0.0000
0.0000 0.0000 0.0000 0.0000 0.0000 0.0000 0.0000 0.0000 0.0000 0.0000 0.0000 0.0000 0.0000 0.0000 0.0000 0.0000 0.0000 0.0000 0.0000 0.0000 0.0000 0.0000 0.0000 0.0000 0.0000 0.0000 0.0000 0.0000 0.0000 0.0000 0.0000 0.0000 0.0000 0.0000 0.0000 0.0000 0.0000 0.0000 0.0000 0.0000 0.0000 0.0000 0.0000 0.0000 0.0000 0.0000 0.0000 0.0000 0.0000 2.3585 2.3574 -0.9098 -0.8224 -0.8254 -0.7854 -0.3948 -0.7328 -0.9048 -0.8288 -0.6857 -0.7854 -0.6255 -0.3985 -0.2355 0.0000 0.1138 -2.3306 -2.3352 0.0000 0.0000 0.0000 0.0000 0.0000 0.0000 0.0000 0.0000 0.0000 0.0000 0.0000 0.0000 0.0000 0.0000 0.0000 0.0000 0.0000 0.0000 1.5708 1.5241 -1.7762 -2.7234 2.9229 3.0309 -2.8198 -2.9764 3.0828 -2.7828 -2.4981 -2.6779 -2.7828 3.1416 2.9442 -2.9442 -2.8966 3.1416 2.7611 2.2143 2.8966 -2.6779 -2.5536 -2.8966 2.8198 2.1588 2.3562 2.5536 2.4669 2.3562 2.2455 2.3562 2.8966 2.8966 2.6012 2.7611 2.9764 2.7367 2.7367 2.7367 2.9764 3.1416 2.9442 2.5536 2.7828 3.1416 2.7234 2.4469 2.2143 2.0344 2.2455 1.8925 1.8158 2.0344 -1.5708 -1.8158 -1.7359 -1.2490 1.1071 -2.3600 -1.5708 0.0000 0.0000 0.0000 0.0000 0.0000 0.0000 0.0000 0.0000 0.0000 0.0000 0.0000 0.0000 0.0000 0.0000 0.0000 0.0000 0.0000 0.0000 0.0000 0.0000 0.0000 0.0000 0.0000 0.0000 0.0000 0.0000
0.0000 0.0000 0.0000 0.0000 0.0000 0.0000 0.0000 0.0000 0.0000 0.0000 0.0000 0.0000 0.0000 0.0000 0.0000 0.0000 0.0000 0.0000 0.0000 0.0000 0.0000 0.0000 0.0000 0.0000 0.0000 0.0000 0.0000 0.0000 0.0000 0.0000 0.0000 0.0000 0.0000 0.0000 0.0000 0.0000 0.0000 0.0000 0.0000 0.0000 0.0000 0.0000 0.0000 0.0000 0.0000 0.0000 0.0000 0.0000 0.0000 0.0000 2.3504 2.3574 -0.3456 -0.5233 -0.5984 -0.5713 -0.7378 -1.0191 -0.9273 -0.6107 -0.5404 -0.3347 -0.1149 0.0624 0.1380 -1.4656 -2.3334 0.0000 0.0000 0.0000 0.0000 0.0000 0.0000 0.0000 0.0000 0.0000 0.0000 0.0000 0.0000 0.0000 0.0000 0.0000 0.0000 0.0000 0.0000 0.0000 1.5708 2.4376 -1.5708 -1.9296 2.8966 2.8966 -2.6779 -1.9296 -2.6012 3.1416 -2.3562 -2.3562 -2.8966 3.1416 3.1416 2.8966 2.6779 -2.6779 2.5536 2.0344 2.8198 3.1416 -1.5708 -2.6779 1.8925 1.5708 2.3562 2.3562 2.0344 1.8158 2.0344 2.0344 2.3562 1.8925 1.5708 2.3562 3.1416 2.6779 2.5536 2.4981 2.5536 3.1416 2.8198 2.3562 3.1416 3.1416 2.1910 2.0344 2.0899 2.1112 2.2143 2.1588 2.1588 2.3562 -2.3562 -1.1071 -1.1071 -0.3805 -1.5402 -2.3638 0.0000 0.0000 0.0000 0.0000 0.0000 0.0000 0.0000 0.0000 0.0000 0.0000 0.0000 0.0000 0.0000 0.0000 0.0000 0.0000 0.0000 0.0000 0.0000 0.0000 0.0000 0.0000 0.0000 0.0000 0.0000 0.0000 0.0000
0.0000 0.0000 0.0000 0.0000 0.0000 0.0000 0.0000 0.0000 0.0000 0.0000 0.0000 0.0000 0.0000 0.0000 0.0000 0.0000 0.0000 0.0000 0.0000 0.0000 0.0000 0.0000 0.0000 0.0000 0.0000 0.0000 0.0000 0.0000 0.0000 0.0000 0.0000 0.0000 0.0000 0.0000 0.0000 0.0000 0.0000 0.0000 0.0000 0.0000 0.0000 0.0000 0.0000 0.0000 0.0000 0.0000 0.0000 0.0000 0.0000 0.0000 0.0000 2.3437 2.3413 -0.4398 -0.5948 -0.6078 -0.5779 -0.7854 -0.6202 -0.1853 -0.1049 -0.0798 0.0370 0.1419 3.1205 -2.3369 -1.5708 0.0000 0.0000 0.0000 0.0000 0.0000 0.0000 0.0000 0.0000 0.0000 0.0000 0.0000 0.0000 0.0000 0.0000 0.0000 0.0000 0.0000 0.0000 0.0000 0.0000 2.4530 1.5607 -1.8158 2.9442 2.9442 -2.8198 -2.2143 -2.1588 3.1416 -2.3562 -2.1112 -2.8198 3.1416 3.1416 2.8198 2.8966 -2.8966 2.5536 2.5536 2.9442 2.8198 -2.3562 -2.5536 2.3562 1.8925 2.8198 2.6779 1.5708 1.5708 1.5708 1.5708 1.5708 1.5708 1.8925 1.5708 0.0000 1.5708 2.3562 1.8925 1.5708 0.0000 0.0000 1.5708 -2.3562 1.5708 1.4464 1.7359 1.9513 2.1294 2.1910 2.1910 2.0344 1.8925 2.3562 -0.2450 -0.4049 -0.1244 -2.3449 -1.5708 0.0000 0.0000 0.0000 0.0000 0.0000 0.0000 0.0000 0.0000 0.0000 0.0000 0.0000 0.0000 0.0000 0.0000 0.0000 0.0000 0.0000 0.0000 0.0000 0.0000 0.0000 0.0000 0.0000 0.0000 0.0000 0.0000 0.0000
0.0000 0.0000 0.0000 0.0000 0.0000 0.0000 0.0000 0.0000 0.0000 0.0000 0.0000 0.0000 0.0000 0.0000 0.0000 0.0000 0.0000 0.0000 0.0000 0.0000 0.0000 0.0000 0.0000 0.0000 0.0000 0.0000 0.0000 0.0000 0.0000 0.0000 0.0000 0.0000 0.0000 0.0000 0.0000 0.0000 0.0000 0.0000 0.0000 0.0000 0.0000 0.0000 0.0000 0.0000 0.0000 0.0000 0.0000 0.0000 0.0000 0.0000 0.0000 0.0000 2.3407 2.3495 -3.0810 -0.5071 -0.5155 -0.7023 -0.4324 -0.0831 0.0000 0.0000 0.0000 -2.3424 -2.3462 3.1416 0.0000 0.0000 0.0000 0.0000 0.0000 0.0000 0.0000 0.0000 0.0000 0.0000 0.0000 0.0000 0.0000 0.0000 0.0000 0.0000 0.0000 0.0000 0.0000 0.0000 0.0000 1.5708 1.6121 -2.1421 -2.9997 3.1416 -2.9305 -2.5536 -2.4469 3.1416 -2.8633 -2.5536 -2.9764 3.1416 3.1416 3.1416 3.1416 3.1416 3.1416 2.9229 2.7928 2.8198 -2.8966 -2.7611 2.4469 2.3562 3.1416 2.2143 1.8925 2.4669 2.3562 2.4669 2.6779 2.5536 2.3562 2.3562 3.1416 -2.6779 2.8966 2.2143 2.3562 3.1416 2.3562 1.1071 0.0000 0.5880 0.8761 1.2490 1.8925 1.8491 2.0344 1.8158 1.5708 0.6435 0.6747 0.6202 0.0000 -2.3343 -2.3379 0.0000 0.0000 0.0000 0.0000 0.0000 0.0000 0.0000 0.0000 0.0000 0.0000 0.0000 0.0000 0.0000 0.0000 0.0000 0.0000 0.0000 0.0000 0.0000 0.0000 0.0000 0.0000 0.0000 0.0000 0.0000 0.0000 0.0000 0.0000
0.0000 0.0000 0.0000 0.0000 0.0000 0.0000 0.0000 0.0000 0.0000 0.0000 0.0000 0.0000 0.0000 0.0000 0.0000 0.0000 0.0000 0.0000 0.0000 0.0000 0.0000 0.0000 0.0000 0.0000 0.0000 0.0000 0.0000 0.0000 0.0000 0.0000 0.0000 0.0000 0.0000 0.0000 0.0000 0.0000 0.0000 0.0000 0.0000 0.0000 0.0000 0.0000 0.0000 0.0000 0.0000 0.0000 0.0000 0.0000 0.0000 0.0000 0.0000 0.0000 0.0000 3.1416 2.3484 2.3448 -0.8721 -0.8110 -0.6147 -0.5713 -0.7266 -0.9273 -2.3488 -2.3488 0.0000 0.0000 0.0000 0.0000 0.0000 0.0000 0.0000 0.0000 0.0000 0.0000 0.0000 0.0000 0.0000 0.0000 0.0000 0.0000 0.0000 0.0000 0.0000 0.0000 0.0000 0.0000 0.0000 1.5708 1.6816 -2.0779 -2.8387 3.0703 2.8198 3.1416 -2.4981 -2.6779 -2.5536 -2.6779 -3.0309 3.1416 3.1416 -3.0309 -2.9997 3.1416 2.9997 3.1416 3.0309 2.7928 2.9617 3.1416 2.6779 2.6779 2.9442 2.6012 2.5536 2.7611 2.3562 2.4669 2.3562 2.2143 2.1588 2.8198 2.8966 3.1416 3.1416 2.2143 2.2143 2.3562 1.8925 1.5708 0.4636 1.2490 1.1071 0.0000 1.5708 1.5708 1.8491 1.6615 1.4877 1.1071 0.6947 0.7854 -2.3421 -2.3316 0.0000 0.0000 0.0000 0.0000 0.0000 0.0000 0.0000 0.0000 0.0000 0.0000 0.0000 0.0000 0.0000 0.0000 0.0000 0.0000 0.0000 0.0000 0.0000 0.0000 0.0000 0.0000 0.0000 0.0000 0.0000 0.0000 0.0000 0.0000 0.0000
0.0000 0.0000 0.0000 0.0000 0.0000 0.0000 0.0000 0.0000 0.0000 0.0000 0.0000 0.0000 0.0000 0.0000 0.0000 0.0000 0.0000 0.0000 0.0000 0.0000 0.0000 0.0000 0.0000 0.0000 0.0000 0.0000 0.0000 0.0000 0.0000 0.0000 0.0000 0.0000 0.0000 0.0000 0.0000 0.0000 0.0000 0.0000 0.0000 0.0000 0.0000 0.0000 0.0000 0.0000 0.0000 0.0000 0.0000 0.0000 0.0000 0.0000 0.0000 0.0000 0.0000 0.0000 0.0000 2.3628 2.3653 -3.0812 -3.1014 -3.1177 -3.1150 -2.3525 -2.3599 0.0000 0.0000 0.0000 0.0000 0.0000 0.0000 0.0000 0.0000 0.0000 0.0000 0.0000 0.0000 0.0000 0.0000 0.0000 0.0000 0.0000 0.0000 0.0000 0.0000 0.0000 0.0000 0.0000 0.0000 1.5708 1.6512 -1.8623 -2.7611 2.6779 2.4469 2.8198 -2.8966 -2.5536 -2.1294 -2.5309 -3.0509 3.0419 -3.0419 3.0509 2.9442 3.1416 3.0309 3.1416 -3.0172 3.0419 -3.0750 -3.0828 2.8387 2.7018 2.6779 2.5536 2.1588 2.1588 2.3562 2.2143 2.0344 2.0344 2.4981 2.8198 2.8198 3.1416 3.1416 2.4669 2.4669 2.5536 2.1588 1.5708 1.5708 0.9828 1.5708 0.0000 1.5708 2.1112 1.8491 1.7506 1.4877 0.9273 0.5586 -2.3667 -2.3631 0.0000 0.0000 0.0000 0.0000 0.0000 0.0000 0.0000 0.0000 0.0000 0.0000 0.0000 0.0000 0.0000 0.0000 0.0000 0.0000 0.0000 0.0000 0.0000 0.0000 0.0000 0.0000 0.0000 0.0000 0.0000 0.0000 0.0000 0.0000 0.0000 0.0000
